-324.9587399128019,589.0138218187057,-987.9558353625653
-208.5265429721092,367.16986498302396,-1009.611321681415
288.87726134750073,-27.31300637443748,-1015.8595420002476
-85.48820659336006,264.2378406828585,-1042.9280100559401
4.334672353479705,8.878433849483681,-1132.4926768488804
-193.4918843260703,342.39397304059423,-959.6387232729431
-41.02576309032281,319.5558883724588,-993.4813792186295
-246.45372134366747,374.76965266038496,-862.5647445603854
-366.52127481706896,267.150562037466,-869.9429337164999
-309.8566385928309,417.248035163751,-814.4090007978497
-329.7831467602841,521.2034042229643,-768.8349830265802
-187.36019528597305,317.9266196602873,-923.3345280841562
218.66455930887275,240.64101437045144,-1001.7852642846053
218.47001469868073,240.65345566417375,-1001.8327775472671
-341.12649782565666,384.52933019388377,-797.4143086476004
-341.32108713112694,384.503964106173,-797.3579109522425
-440.72289468333304,407.95087703526065,-598.6733994846323
-465.3502017393923,488.9429053283548,-733.0615176204252
-7.005631593341116,345.0377714487351,-964.0133243954785
-436.7501017749877,599.4723086301749,-668.2835997950741
-436.94085255293743,599.4370374541494,-668.2346141606762
-459.5432491026764,456.04319669190215,-699.8733735073547
-459.73331021429414,456.01219957835866,-699.8149468364164
295.1678974846264,-576.0556059690462,-878.5554393478584
294.9958713608812,-576.0974206005377,-878.6308174637294
-425.34197493679113,330.79802660540423,-854.3758472982407
-425.5352212100924,330.78863775138143,-854.3323731504671
-413.3907775220923,490.10905923994244,-684.6047380917348
329.39998037049844,-595.7077397844404,-944.908682774557
329.2337143956522,-595.7554183007848,-944.995624929671
-265.159685838851,402.847417653064,-859.743297983308
-665.1984664981059,446.5275591263083,-530.4038466390839
-665.3766992731862,446.47320791668693,-530.3294136336924
-568.0774458987547,332.994466452526,-684.9351745543205
-568.2585893964867,332.9727939225911,-684.8758908475797
-554.1334225766457,467.35377812640854,-762.2767175302298
-554.3235878022127,467.33709192243066,-762.235221938448
-586.6563536823598,-394.8247154077807,-1292.4633237433554
-586.8483055735812,-394.81502278730756,-1292.454076069427
-389.2946796668936,428.87032728730264,-839.367269634793
-325.3032631271043,409.6578635905325,-1216.1699136470052
-325.4890683951588,409.6735773783307,-1216.1914186778008
-580.055021412463,700.4582411604721,-1141.4427791069675
-580.2483903801441,700.4654429048668,-1141.4370524950364
-710.899002811677,305.65231673056815,-757.9984544811199
-711.0805245743802,305.63830494870354,-757.9438805121138
-681.1030718111566,371.2674576045763,-768.2350554097686
-681.2893391586998,371.2547424701174,-768.1909905972465
-735.154034359876,262.0353993047381,-870.6306008215117
-735.3402025498426,262.03058833374286,-870.5871063233697
-611.6118946438871,240.55034132776387,-854.972098871481
-597.7992823492835,464.0811774531462,-895.5096152154379
-597.9947639781074,464.0864401408408,-895.4972754731502
-306.5002212612149,678.1082440162828,-1335.7827827966814
-306.68613443619057,678.1436043544682,-1335.8312603662207
-433.10155077150193,443.33419504939724,-955.3810603752116
-616.4808681852809,529.1977118654125,-863.4682050360916
-616.6770780443464,529.2069642580212,-863.4618763886983
-561.5000364054453,789.4741390954438,-1331.719056908641
-561.1685933342204,789.5374392472994,-1331.783301874128
-422.0360750002027,541.3800365350103,-909.4723123497445
-421.8452166044787,541.3683387231038,-909.4696568823912
-525.6101336528087,514.4071709300728,-975.5038412733762
-526.223134485731,514.4098488198604,-975.4969318869566
382.8215963608836,-691.8428517915278,-1272.0651571583182
382.69323848993423,-691.9065436999495,-1272.2072985382226
-553.3931897940673,461.7483752003695,-776.1423046419503
-595.1381403587194,491.5480008981762,-724.4950845592739
-650.6057890308714,380.7806146359389,-790.2985163743418
-801.9563170746676,260.87618223506604,-1046.4743377804903
433.08691957816774,-414.25949298572755,-1005.0179135645795
566.9286414962379,-500.6518851165636,-723.8349851952207
410.9797144572948,-579.3762980871603,-897.7601957579977
521.7294417346651,-509.3736169534794,-808.9886463280877
468.01204093159,-484.4108168727087,-926.7647747194495
629.6070771602358,-516.3800644899985,-960.0401718353127
489.37108018635035,-475.6671561083945,-812.6156285138982
488.95267870720755,-476.08045206228707,-813.4142534824942
-629.0128878357912,638.3775600008456,-870.8433118600644
-974.2802770668735,219.64111309609018,-703.2057057684196
145.8276606795213,440.5009757009211,-781.3997484659882
231.90631969787879,-260.59673923709755,-1006.7450020505078
361.2231885337677,-160.775604660086,-1070.537543242126
331.39996257013695,-173.00701144133157,-1031.3259661922818
121.70009570780678,311.6854778263549,-727.1563190262128
152.56376720286772,205.79649752503988,-1050.6206351065903
-417.83912213969626,610.008701999542,-1294.816004468793
35.26896262168168,232.7649835637241,-1036.965171709124
-412.4230711940933,694.6706524138131,-573.7930499493077
-356.8059828410233,440.7512583803646,-797.8102221780427
-356.99000882239403,440.7107475042575,-797.7362620653489
-323.85256890452814,315.51535380539787,-918.7657140790183
-324.04091253026064,315.49047930183474,-918.6993465383546
411.2833947453782,267.6151811979232,-960.3936361852528
-296.8963980152162,301.3640736980855,-938.2383580483192
-297.0925439264389,301.34537448492085,-938.1826155743554
360.51593391170076,-346.5897878393285,-950.1535160967786
-102.86013323230524,149.80823176244638,-1055.9930550706795
-103.05812045404582,149.80597135876363,-1055.9821047852793
-436.65469537036205,340.96667263904084,-836.3866699788432
-436.8413095933069,340.9391508914534,-836.3148979208994
206.88348105946602,82.78642801937343,-1139.6786676625293
36.68428372285792,233.43874447279384,-1037.0786419166598
-301.93919988863513,269.05277359304654,-1009.150774651446
-302.13359750326947,269.05271031316454,-1009.1177226108716
-325.0701470930739,372.13473625873286,-969.4266250220112
-325.2644385815387,372.12810331475475,-969.3939838303403
-415.61611500121313,416.33205456061467,-878.1253482138819
-415.8098905961671,416.31691513717925,-878.0779000929256
-398.1160886648888,320.01999850377535,-949.1219135466017
-398.3055388166479,320.01008509469483,-949.0833180519879
-417.7205022212008,339.3039404621244,-625.3950561454765
-417.9080510275339,339.2760916909792,-625.3350072463571
-523.8591590148179,346.96193513880837,-860.1342602664882
-524.0459758701055,346.94572345796945,-860.0774270623411
-188.34649780419056,455.337577470393,-655.4981496703122
-188.54148284522526,455.33283919045635,-655.49900918884
-514.215027092254,262.57967597373073,-1005.4894915000845
-514.4011722895302,262.57665382128187,-1005.4484067448789
-649.6487237093718,246.9172322376736,-832.6365344855999
-649.8267282804953,246.89998309283433,-832.5670734186604
-550.381763463697,447.3286151834819,-925.9699702834084
-550.5708400230005,447.318884450725,-925.9295399056266
-555.2769343726754,298.0231563313882,-931.4609598103287
-555.4640079516292,298.01626427398855,-931.419088593347
-368.0160380852139,316.9737196690379,-956.1195284703736
-605.882161610887,517.554002072048,-857.9089133476617
-606.0705714472485,517.5412958732793,-857.8690127055294
-576.4583740781319,271.04678282408884,-968.8899972702867
-576.6448603108148,271.04466494064934,-968.8565578297292
-552.6959870389613,378.3723137462802,-843.0341768663827
-615.0733418477563,453.1608711061357,-772.8944697883823
-402.84786496232397,453.81700589645334,-743.470317180018
-403.0405556953467,453.82058168634677,-743.459993611647
-593.9983894763867,370.1285798509432,-906.2173287340776
-594.1865638216037,370.1268793487772,-906.1906898843256
-642.4320394970507,467.68083175626253,-742.9903080730038
-642.6202594303851,467.66810048283486,-742.9524512999819
-604.9890159399905,263.41591833729126,-1018.6603306627494
-605.1783196507746,263.42031530975385,-1018.6439634309392
-588.1406891456961,350.45095254326816,-854.6642708462226
-558.51321365537,375.121973164892,-859.1928134453144
-708.8743749624435,428.65716307416375,-916.9729709305958
-709.065188904683,428.6569181387368,-916.9482334419454
-298.8179585615458,776.5825010709771,-1150.8977616138475
-299.00103848310965,776.6223445149345,-1150.938876759038
-650.8563150299354,341.8873900905198,-794.3437821291967
-680.788769779769,468.9552690738552,-687.3836189803665
-680.983645023353,468.94669312745606,-687.3551395866136
605.4441815282381,-494.34470912807456,-883.3101879738201
605.3550859379808,-494.42072062064966,-883.4672822392822
481.8409837803363,-448.55786989249845,-1065.319132184543
481.7324701553323,-448.6096932930742,-1065.469340171518
590.4151721726213,-492.5056852744689,-846.0226023392859
590.3336285398826,-492.58434622083655,-846.1795757620796
597.5163192734365,-538.6958660422674,-922.6526933650836
-579.0067627576345,433.5265677219855,-873.1476742988932
-578.812088495522,433.52394625131654,-873.1637424698505
511.50556289520694,-669.3253171839449,-881.7625893376239
511.41656125702747,-669.4144633289123,-881.9033296445324
578.0409154529483,-581.0240438881202,-864.0338386432776
577.9675826236033,-581.1088482556387,-864.1865779690794
506.86612490741174,-654.0805271607366,-819.4773045151385
506.78673800630185,-654.1737223865053,-819.6211489617233
-627.2089058780332,472.3169216325199,-792.1826155504402
591.187372770135,-420.5740499995301,-884.7243730238049
590.7770101896735,-420.87047522270194,-885.4652761397717
536.3920474966135,-402.653242291576,-965.1174021865288
669.5382619326195,-514.4313095910749,-713.5880864950357
415.13637019997805,-251.22873430334286,-1048.5234008799882
404.65599574932946,-921.8542885748385,-853.1234310644073
266.5306481454112,-0.6868514754905415,-1107.7670583861093
267.42618702992604,-0.6646581970619247,-1107.7056254632419
273.5064993761302,115.31329310952367,-1126.871918965957
274.4036570082679,115.32692561996802,-1126.7914708222513
372.8418175158042,-139.92093705198485,-1046.8609477983514
-215.39660993385775,298.20443134919043,-1056.4823873834832
-337.81067799225985,382.9705810124247,-945.1082929884186
-336.9857686853657,383.12139884808755,-945.4390351334146
59.93927247504436,-405.7761121557036,-635.4008131088201
60.834751573335566,-405.76461196298476,-635.4058322915882
-105.51147810915691,98.84576150911933,-1103.6992705002267
-362.98040259723507,469.09482329424554,-860.3895588672674
-363.1704806158358,469.05408112687115,-860.3215400787368
-257.4740399719265,260.37558724236203,-1055.5407852320652
-257.67281880118094,260.36072704295134,-1055.4913861418777
-371.91398353301906,356.7408357887103,-944.3792018413751
-372.1042520549092,356.7139259077155,-944.3137286891978
-297.4627882835975,393.6361692679245,-987.419971013834
433.48129426723517,-971.417774947567,-1110.2080450239914
-218.41584526828305,272.86621664409483,-1122.9881867172253
-177.86321776046142,175.43644765072716,-1111.4381415657176
-178.0642809004454,175.43391116275188,-1111.420713023533
-284.4548731186264,265.9639915102734,-1050.4718850917504
-85.4687997958734,404.93648162213157,-673.0559899707797
-336.80946912889647,286.9597514802557,-1071.8303927558368
-337.0053528543337,286.9541941720346,-1071.7964322727398
-496.05666314145765,417.9572756738137,-870.0301305530543
-496.24771780578135,417.9319327201442,-869.9682657598615
-467.505465752999,498.1510378178423,-821.4208350978664
-467.6961064525712,498.12490600126375,-821.3682744862564
-520.1399523158045,356.10777215338777,-888.1876510387599
-520.328331256259,356.0874385977758,-888.1271869965022
-479.3292592310385,376.00285528550035,-954.6293087382619
-479.519655078955,375.98930981724317,-954.5825086794283
-491.5274021528638,448.11599428267573,-923.4118623585123
-491.71981535086917,448.1013326277284,-923.3662063473321
-506.16741086859486,376.9231382583276,-951.1791430270512
-506.35711465693123,376.9109881024842,-951.1341100062855
-516.2940119599303,446.9211885517345,-923.7932346771164
-528.5330684178749,446.62609625878383,-924.4170637917442
-493.0364436226439,308.6029928117639,-1043.7904440175134
-493.2269202022051,308.5997418110502,-1043.7594892940913
-556.393057837668,378.5402092639265,-948.7734446030835
-521.6458157129033,311.1879947484458,-1042.0934018742691
-593.7242805617108,461.99787225051557,-883.6406115748118
-593.9156625774356,461.9832663769876,-883.5983634153771
-538.2700073814906,475.82381863425655,-924.130634096724
165.72025099139435,-369.4868070554054,-1558.6924077600095
-552.2506282326735,481.3863367144264,-1004.9225111692482
-612.4138308750606,282.7482475054656,-998.737253188968
-575.7270262059102,408.75369850335096,-1034.2947428021953
-615.1294751239606,364.901477534608,-1000.8888042387764
-650.2319077099515,473.9142734473866,-793.8867737202806
-650.4242235118568,473.89927252069253,-793.849064419451
-585.203305982748,297.0176338437957,-1096.6371501473398
-658.1042847469508,482.5257655211237,-898.4683515010028
-648.6180827949063,523.9517979241998,-811.7446004047808
-575.9164729376829,410.0292314100741,-1096.4391445633014
-576.1092757602971,410.0377252858443,-1096.4369047116254
497.72057234581024,-529.1574833505002,-1078.896805203794
497.59653195840554,-529.2142978113209,-1079.031656998153
-649.1765413658541,432.6998557702592,-966.1049813972568
-649.3713910461863,432.7017139912802,-966.0907913177376
-595.9253033708198,531.2499916824727,-936.7004649648837
-596.1210811715514,531.2567898561529,-936.6956422706891
-583.9542173577182,431.2446110897265,-981.5170719799022
-583.7274754047404,431.24310054409517,-981.5528626945877
-630.4933222280916,467.4243277353006,-890.6748503647793
-630.2621073796538,467.42827586838513,-890.7224334420451
635.8306310448119,-606.8622069518025,-760.9335990972172
635.7432772404395,-606.9674850544571,-761.080402107101
663.8482999389241,-595.3673454178394,-978.2928253850353
663.7543571268227,-595.4504191492285,-978.4487120530792
621.8633700663369,-569.8872353274282,-870.0294466483558
621.7747797859892,-569.9757545080779,-870.18319994111
584.2063478827489,-596.5196625749154,-979.5478972579037
584.1076216979155,-596.600400348819,-979.7020401087314
486.2536603788013,-635.7599113334355,-988.5159746572987
486.1458773598074,-635.8397100935956,-988.6588501257927
353.6858784625196,-638.0046609621887,-1084.9253127461961
353.56458331772797,-638.0700520906181,-1085.0579211921515
571.6175584288517,-654.0747067729973,-767.8324114705788
571.5350877376629,-654.1821605985818,-767.9756359229226
518.9146930244766,-707.27077202389,-780.3376206764436
518.8254684907413,-707.3778260525696,-780.4745241256978
493.08760783843854,-633.5330440546483,-914.064183589891
492.994782124964,-633.6193101527117,-914.2105420373018
525.7934695957422,-649.0430512782912,-739.0590301466768
525.7142336397366,-649.1521607047399,-739.2036252437412
436.7108907247403,-674.151733306839,-832.8629505430845
436.6176507413067,-674.247717477714,-833.0036657074888
-608.0804788089009,556.5371665673481,-883.9087271718859
-607.8869033141189,556.5327293193138,-883.9122392470655
-522.3501683579419,541.5859965904424,-1019.7986110109671
611.7267742704847,-579.4003675796862,-827.3052950597877
602.3974988707268,-589.6162687333024,-817.6829509235524
602.0033581255594,-590.03632528582,-818.3439427652764
519.5478027819711,-597.1035255841573,-935.7295130189391
519.0608866820079,-597.4775477155315,-936.4252669191294
480.66519077593495,-569.079721492069,-1042.1801698133993
562.216753311173,-605.961847280933,-876.7334443339954
485.4941321384292,-617.8028707280912,-948.4746762252487
554.8498000088262,-629.9325361306636,-792.5710494679361
37.489378660795815,796.8946681908154,-870.3927665769089
38.39849542695132,797.0166421552606,-870.461758307842
-658.6355698991588,261.0623668187251,-672.1052780308614
-658.6363076740835,261.06015595135585,-672.105827992542
553.3156877001043,-21.117531785273016,-1032.2893189866647
-323.6738794318011,658.1890962823851,-764.5828950009367
-165.92138475094163,701.2361877044538,-868.3608803278241
-165.038864833174,701.41007993908,-868.5197859217193
394.16785856015014,-184.44852320919523,-911.0315164059577
-351.25870787020045,532.4414470817352,-898.6664182815474
-351.4422650824909,532.3984986553074,-898.6012066346856
77.4272670682677,363.4198062790331,-1174.0567272430471
-370.19595632343396,557.2169086075553,-702.3721568889605
-370.3805514050946,557.168994671793,-702.3021870303926
416.520763277404,234.35798731397443,-1064.6705866889126
431.3798132830168,473.0569725425993,-939.8545065395879
-396.3499142338098,528.384311086334,-946.2157830673418
261.6782553740695,6.81414689395697,-1111.8327540514126
-217.66634488500506,367.2330653326094,-1019.474902099897
-217.4862416561069,367.25809323124105,-1019.5360195142586
-433.9482253440611,588.4261561659896,-873.6118918450414
-434.13192221390153,588.3911126715664,-873.5574799603961
82.64523588949396,235.5894070395042,-1154.2127853617378
31.22814133443235,354.20888665077575,-1042.808002988387
-626.3287709752516,688.8432634890817,-728.0405546701353
-626.5069749389571,688.7837090221446,-727.9753427702688
-540.7314513305396,260.83845790876205,-1044.7741779149871
-540.9126318562412,260.82708727617995,-1044.708633266169
-296.67146231605795,377.2031926919427,-963.9244289679374
-333.0741788457725,397.9382757770283,-1157.8310318673975
-333.26511437569536,397.93728630212615,-1157.8070938696635
97.27265481533166,402.3299579731461,-1029.1518889167162
97.46707154239391,402.32818302487857,-1029.1403315555556
-437.1210230099125,531.72517110967,-1041.385950740292
-437.3100568492978,531.7170016040614,-1041.350766470503
-638.6761747148014,570.7102350871205,-1005.451210141958
-638.8594442935565,570.6837447200477,-1005.3967986245704
198.23796684906506,-956.7276048133092,-916.2739024678144
198.0623716959474,-956.7629435453962,-916.3312163266964
-747.2380475653296,278.6138798265305,-1051.9242019740857
-747.4090271187267,278.605294490713,-1051.8545914805914
-108.40233530569887,335.1622328138984,-1092.8283933752339
-392.7636130712376,445.43384111216307,-945.5984502066244
-349.39199360363614,327.86716760077,-1033.1684836324357
-665.3278301265912,202.8342026321737,-1119.076698645287
-665.5074454601942,202.8334535652706,-1119.0286132912586
-530.6027472313644,202.5131081858004,-1313.8422365926679
-530.7900333050235,202.51851114547858,-1313.8235290358718
-440.7729774334735,385.34213310545323,-894.7257253742806
-497.5941704514959,355.4955916793679,-895.9887842931447
-381.53006187155773,-140.11132073095285,-1087.728120461931
-470.56474557919057,294.61756533266805,-977.9326766705162
-470.38354568026324,294.6256530914651,-977.9810178138321
-822.7892652401517,260.36201108276765,-948.7951460562793
-558.8725293195677,321.3668463232232,-857.1708158706612
-558.6985830625432,321.38450308392316,-857.2323427024909
-560.9917824901452,433.5768557169094,-819.4376731050297
-517.0445146414045,171.3501637339564,-998.3104578918931
-797.7870523536257,-66.32827604162155,-1035.5834251438985
-797.9639274010227,-66.31901646327152,-1035.5373543241574
-458.7791346585401,299.53740446620753,-1013.2059496226357
171.12200000657828,725.6634914868147,-1215.6032642390583
170.97161258106308,725.7277879541049,-1215.6707827750056
-586.3519591047564,191.88751886068138,-1018.1697431923424
-836.4773874025699,362.4949058984413,-1074.6160696289494
-836.6580001322835,362.49309646123237,-1074.5800716704316
-714.640122129085,570.6766116408497,-806.2342688363851
-714.8266750931136,570.6655927330651,-806.2030380576616
-747.6211754928279,620.5219689394693,-942.0891038502525
-747.8061686661035,620.5186245521933,-942.0654622718968
-609.0535509835026,405.0113526568494,-905.8984353490187
-776.7478206612881,631.9879573758927,-838.6275247642496
-776.9339646900502,631.9788696364415,-838.600635145638
-337.93482669644374,-14.878138919663193,-1485.1345824687548
-338.11147601375484,-14.869193694352326,-1485.1859155658046
-564.5082228718272,480.63710670250094,-930.1097434936096
-615.4413291656094,397.27317880381383,-886.3049052326727
-822.4912259255075,507.4514942677032,-818.7637012838402
-822.6813789750711,507.4444445912068,-818.731438860599
-539.4069023857585,514.8782009133048,-925.3257698757104
-640.7096520502033,469.4691127803917,-832.5796545659719
-639.388080167121,304.155041385277,-1006.8058287825521
-615.8520632252437,509.42459100555135,-894.3111069077269
669.2658324858044,-36.78934431310786,-1488.7433120456383
669.1697821889363,-36.78445071318676,-1488.9031706198596
-681.462391772215,460.6714588614168,-744.1597515904873
-711.44900831629,396.54935269568637,-789.0364354121359
-695.4207699817676,380.4418420291424,-863.6793250190967
-542.7661711274337,436.0271968297573,-1062.3416440867827
-584.396778971273,476.28052433803236,-829.7524162952307
-661.515898376118,529.886904617053,-748.7695593814362
604.4704016125385,-395.4760747397647,-1029.0406934914147
566.9546234281244,-562.7267847468127,-844.5612090805344
507.26237157240945,-484.0598486863882,-1008.5055177409625
593.4425797825173,-500.5989581969327,-912.72639742392
633.5411690414301,-595.3357805915228,-711.798966733837
580.7418549847446,-494.9911484316709,-873.1771896858443
553.4084587964041,-609.7089200991253,-556.0206970375282
529.9529506805994,-571.815122075114,-535.424944602609
484.49955836936334,-601.9060917822154,-594.473834129899
-655.9387270806327,276.0721643544523,-602.8192993574816
-655.9405848752787,276.0705519976351,-602.8196091739763
503.8601110537614,-643.0116196771602,-515.6643787239499
-541.4766713999111,692.6781216392264,-546.6311254361243
662.6708520941141,371.90979937456746,-1290.6236115750428
-358.91649258700915,469.0524598797669,-1325.8961035115824
538.0947152402239,273.6204817614369,-1375.1369475796491
557.5918103408386,-350.10329522516713,-1316.4648220228125
659.2520402485887,405.44357061883704,-1121.8725485605103
273.6175379915665,378.3378634226488,-1444.4798570298153
376.5811590554661,224.93121109414645,-1413.6328385580068
-412.0149024387331,769.3768187713265,-1082.8406469559905
-412.1871087543212,769.3332278168108,-1082.7856993082285
385.5218885962164,315.11369411317366,-1298.3602416550466
385.3408717828188,315.120596849674,-1298.3994872260337
-458.9295710904982,525.4826933556667,-1162.3018260880833
-459.102075735354,525.4521373057328,-1162.2377892092718
87.77583214197122,611.6988170461163,-1225.461157747891
87.96109766554278,611.7147672158175,-1225.4820076122912
-182.89847353222012,407.5797881589954,-1349.3652305742671
-183.08154712709748,407.5716941065059,-1349.34165694018
-514.2540829963101,571.8126329326315,-1156.1947432876364
-514.4265978528255,571.7834699051195,-1156.135371776124
207.93451017870845,-843.8598279110342,-1201.3465213105878
208.12158847051265,-843.8577699767753,-1201.3496703779813
-551.9413115029049,669.5688289728923,-1064.3103155028746
-552.115801029245,669.5358080970099,-1064.253248694618
-480.3485787665323,413.48469200128756,-1265.4950691212603
-480.52524908963,413.4703454914183,-1265.4472625691046
-589.2033080615862,495.9802573765793,-1219.8135405825408
-604.4505821489317,499.84018971718444,-1212.1921755797812
-534.5499513766629,429.71872210067147,-1241.2028657283179
-271.6436920619684,424.7114744556565,-1254.642587890567
-408.1461504241486,637.2821339990472,-996.8876633265322
-633.3505013121404,583.1947877393668,-1104.5347772511889
-357.7765871565948,576.7633526707716,-1137.7235321088167
-629.985859115011,439.8447800468474,-1219.449060043191
-630.1608669987197,439.835548965302,-1219.4077494609733
-536.9371078599099,613.9992372501272,-943.8727636999332
-536.7339231040737,614.0371561052481,-943.9450437329239
-750.0897701321744,607.9229925511055,-972.7888054772164
-750.2612447810101,607.8977525835891,-972.735848591323
-676.6699260426967,556.3396285274232,-1180.256746449306
-676.8441678339408,556.330020159338,-1180.2202116777034
-556.5354640743099,345.5989967720799,-574.3272836608729
-556.7044032744976,345.5619586959154,-574.2637135896372
-469.0543435419636,665.4648004299405,-1042.4013523234767
-468.8817252155582,665.4836809310627,-1042.436216445955
-833.7291706981667,444.88468237696384,-1132.753638051409
-833.9013594873288,444.8719556526339,-1132.704664703987
-656.8231583734294,472.7109834544007,-1346.0299464781683
-657.0004655905846,472.7116910750521,-1346.0112659506872
-614.4048101743289,611.6554566547135,-929.6929902581724
-614.2375262411003,611.6819332542515,-929.7406207845821
-834.2682818242648,613.6064091589878,-989.4223507081231
-834.4428382037544,613.5885164159365,-989.3794318083293
-830.607703028709,524.8063777658567,-1085.2692687584258
-830.7808491683916,524.7960410737583,-1085.2306499753063
-657.945879333131,442.0712805015982,-1216.2882817655625
-657.7717022820569,442.08013493707927,-1216.3280489277533
-870.3525031227796,530.2621661884724,-1195.7861051591897
-870.529050682892,530.256230234708,-1195.7544024644426
-798.3522295720135,168.3062663967862,-700.0611320965526
-625.6895038087499,603.6750189557526,-1167.4818039943482
-625.5139685160876,603.6819500906748,-1167.5085839065741
-878.4736926794055,649.6472809044586,-1170.7338318755237
-878.6498432545033,649.6441172446808,-1170.7106196061454
-661.829966702207,593.2122096934022,-1069.2031141315565
-755.4593056451454,450.62554585743425,-1214.906572214811
-858.2465625826596,582.645774818771,-1096.0611417770199
-858.4243838601122,582.643203974851,-1096.04168567011
-789.5045851188686,769.3070785081154,-993.0204227215546
-789.6854077327558,769.3099301554979,-993.0085866186777
-850.8596756901259,546.0562788484237,-1023.857722411904
-850.6880328840152,546.069842826767,-1023.8992414746552
774.7008409375454,-766.9541645469453,-1127.8173966789966
774.6127548356213,-767.0359420350741,-1127.9546091925733
854.758408650987,-711.1654152580896,-904.8184135085282
854.6923517325686,-711.2636745939496,-904.9594903741
-728.2786791283842,615.284133653327,-1088.3155986698328
-616.7819668066395,548.7694195304168,-1301.7104612466449
-616.5969165884809,548.7592587538411,-1301.7074388198455
738.2018040146942,-825.2511555813951,-972.9128405279241
738.1257872488775,-825.3490369548971,-973.0450779707769
-672.1704353858267,494.2176356713572,-1263.514579012119
-777.0307955467867,500.2696128824476,-1192.4634135749436
-776.8511985560161,500.2639738911596,-1192.4749313487414
-832.9224835750467,578.4408519640655,-1001.6059055201301
-833.6499468732868,578.430183648759,-1001.5152053126751
458.1372395821111,-655.1625060074591,-1319.342777134942
638.3982983868084,-666.9485476956631,-1199.838301143481
699.7967661724256,-704.8558223717705,-1053.8214645466642
699.8831876794535,-704.779258670593,-1053.6871574740476
589.3598391590923,-750.5003689599813,-1069.4991549613167
588.957378777273,-750.8237340612567,-1070.0280062434872
630.9081996935121,-738.3893168245025,-1079.8217277893748
-352.92406484367615,620.3279606419915,-1277.6808209649446
629.9822129445147,-770.9105093237173,-964.228616284156
610.1065411507207,-784.662838352241,-930.8898015891867
-346.80271928194543,730.951717021317,-1206.7249857889042
-132.7832260466833,674.2885572701875,-1250.5900684820288
-132.0395267733241,674.3204146650254,-1250.6409997652997
-645.0646301968743,617.4107264891774,-944.0887000541464
-420.36476049208215,612.2175750392729,-1285.7432408703828
-419.520021333843,612.3990302241691,-1286.0702457344087
-557.9124028845114,671.0879673374377,-1060.493907049756
-408.12408728808276,734.0272463088788,-1178.394323961119
-408.29801492372013,734.0091778016902,-1178.3626924908763
293.8074564373604,719.1409127439584,-1265.880193858467
293.640354289,719.1697003461175,-1265.9225226483059
358.5120077551246,659.4008767816221,-1107.758006960274
701.298085716781,189.30213204017545,-1356.9516058663503
701.4585504001654,189.29215169701214,-1356.8787123030272
783.8214578867868,38.09970747662503,-1507.5671840345885
783.9784975804357,38.09861616921299,-1507.49051661567
-311.4463100013719,848.6506321057361,-1141.4906520587308
-311.6254528031867,848.6491918121759,-1141.4799226833807
390.729295739888,638.5733808542632,-1229.8645275944161
305.3341140415806,-592.8525561764206,-1188.799378370834
305.1755546208218,-592.8808109962127,-1188.8641281678135
291.1712277510366,-943.3076319678321,-959.4760371089178
291.0129723567371,-943.3520935547916,-959.5318439165494
151.43022129664453,-285.00919720449275,-1564.472878967899
-262.5951270918834,595.8156946536203,-1338.1820938304584
-814.2820214446326,-17.320631425324898,-1580.9836176785589
439.0437738040483,-900.4527662669375,-1251.8535020196746
270.0925129362476,774.0979923305875,-1023.9879490196622
-616.0197884202508,909.6288824637318,-973.570130952683
-656.816763060589,506.2019875351744,-1194.8484626598172
-648.9361284866943,220.39350042551422,-1409.6851351559505
-577.840047345153,769.5673576364011,-1538.3128989441589
-578.0116678838501,769.5755173522654,-1538.3139238233784
-495.7265864001048,856.2598196900126,-1267.553167607876
-495.90031330186923,856.271883239832,-1267.556168702559
-1019.7716722116957,340.9479590343938,-1018.0181501417651
-854.0453536596383,301.14101831171064,-1109.3113873880407
216.60395171744997,926.9760647150381,-977.2265917406949
216.4617225526114,927.0443204132266,-977.2868461519384
-687.547308580377,737.2895500553781,-1065.7256970910923
-843.7169622429379,739.9582826931744,-1333.6249079287945
-1034.7355552897523,579.4735222696372,-1082.734180720581
-662.3994907519914,318.8759845609711,-1355.6660192483453
-749.0330384657965,413.34230844870893,-1336.8182052860857
-784.2271078276432,585.5181529052558,-1369.1743738573045
-867.8739346016073,370.4419436799207,-1767.6340542135024
-868.0465019488404,370.45224032515813,-1767.6404971375155
-1051.7801362573653,296.6028344041141,-1225.8452325286141
-913.9730760344983,821.7949521558307,-1143.3726686049404
-914.1442898794633,821.7988663609699,-1143.3587246754037
594.0061669801429,-707.7317504208761,-1539.0273405700846
593.895686676614,-707.7797183969611,-1539.1498945098037
-829.5332362540588,796.4653874884089,-1136.8801065224802
869.5944008682618,-863.672940241191,-944.7417116359087
869.523976868059,-863.7737215580648,-944.8683787960682
-793.440991271094,380.5227708121293,-1427.2586033369923
-793.2667774950836,380.51652168170176,-1427.2709075985952
814.453040673421,-893.8525848043355,-1152.8399221406462
814.3725859621256,-893.9416676009234,-1152.9701644378836
392.1338535955725,-955.7325312368802,-1424.161446848716
392.01893397227815,-955.7933868190087,-1424.2710271439266
-961.6379447526634,520.0505693294576,-1191.318533981366
-961.4657440381078,520.0535701530489,-1191.3481727806193
-934.4065103112538,688.0820161030141,-961.477634909084
-591.7379636987811,829.4676138654987,-1286.3031501236112
-591.5660417106828,829.4485027268692,-1286.2886740968636
721.7230130261315,-951.3897374185672,-1001.5819882982686
655.4625841124378,-547.972611007016,-1448.6844039347993
766.6786747941411,-741.6777522448888,-899.6966116861348
766.7535524995865,-741.5876970196041,-899.5700882463722
804.9056214079125,-769.6576768131304,-1055.0795754855644
804.9817425628783,-769.5782522660164,-1054.9498830587604
754.7617023282088,-747.8426327727107,-1011.6997458458103
754.8365296156308,-747.7599967498721,-1011.5760132673255
913.6207828917624,-654.6606826223904,-1105.110768322756
852.239881851707,-772.0779389387095,-962.2682931637346
774.9146677575129,-808.8230794728472,-922.7945761816891
478.47297500080913,-884.3132364762878,-1170.3944851573567
764.4252583588499,-809.3309906350011,-819.97639272714
720.6593635137363,-840.7135085662585,-999.4910575503976
591.1362108928018,-803.3954446488274,-1181.3590381165054
-675.7616880108834,929.7978143305088,-758.2726249876796
-1040.188979425463,189.14525490009962,-621.7703200565787
1416.9456798231972,48.98695573695391,-821.4271195569842
361.3691240803518,-127.65432434706126,-1383.7941242374052
205.30428822837195,337.91741632456024,-1263.433276348284
-175.3156196966145,353.68310869003005,-1250.14061950864
320.30639822781694,-509.87309840656394,-1228.689741859375
436.0570739900213,317.06150883084536,-1178.465103889902
-298.36666051572274,470.85225905190526,-1093.4800148379688
-5.07355022470532,612.7103706550281,-1094.7224742012893
-319.42930191446914,499.130869564136,-1035.7032442413692
-319.612548720411,499.10157186838705,-1035.648118868045
-283.0765545457484,383.3410433469552,-1216.9137758169816
-282.9053591629527,383.37115893723586,-1216.9876767836959
-194.48926487599635,472.6084349511626,-1100.9700575795414
-194.67463239072754,472.59428616010797,-1100.9401757473308
-287.95673249049526,497.72397031838597,-1043.932282404066
-427.904682004388,553.0544673874011,-961.3592016002588
-428.0865030767562,553.0231772829454,-961.3025349616063
-371.80955481199976,454.9042620957855,-1063.9713241411318
-348.5733522515261,528.9127026909094,-1052.3173695483838
-348.7582225437627,528.8956331503678,-1052.2795534762624
183.39948949407787,-576.214270256791,-1120.3659840370112
-430.69893476224547,545.6928496267473,-990.2713766918595
-430.88272623908443,545.6725486223683,-990.2274373417941
-500.59024597622584,507.9979234310241,-1012.9085653455573
-500.7718200412519,507.9772610154568,-1012.8585382554047
-315.8706007725217,584.2551175941386,-1086.654182846611
-316.057231225969,584.2497603587727,-1086.6348602953155
-419.64398100406595,434.8408970236471,-1093.7224043341628
-419.8310046992223,434.8325896418609,-1093.6896187839948
-460.2249905663808,603.023524876188,-986.9578349165869
-460.4061879239579,603.0099550253439,-986.9243452443689
-362.6327810843833,498.7462728776239,-1206.1776639607435
-362.81642599068823,498.7473318050824,-1206.1637168242999
-541.6666484711259,484.4538820977048,-1065.3232816325442
-541.8471577684944,484.4427952925,-1065.2854621853605
211.4059977514874,-517.5877448289277,-1247.2103463971282
211.23541771723535,-517.6097327688024,-1247.2778456820558
-632.4434254997693,521.7829892697055,-952.1192505808536
-632.6202403670912,521.7644107863362,-952.0734790341514
-591.8246932329408,483.4900831853708,-1067.6088346417955
-592.0024465329105,483.4811443578806,-1067.5746453945085
-607.3265324948975,483.0850999134174,-1069.1640935706644
-607.5091557178131,483.0762530824886,-1069.1302568676185
-589.9795931019302,452.92242294773894,-1132.3519929134138
-590.1606508705606,452.91844290063057,-1132.3257013767134
-527.3214380497343,439.3457828546976,-699.4926083229024
-527.500100956767,439.32546511656557,-699.4526254806877
-619.8100116341747,455.773151680097,-1135.8446638096484
-662.1487905338804,488.2056067065566,-1077.0337665862994
-662.3295327747347,488.2009624049346,-1077.0055059466592
-961.375010667443,368.4975365806082,-1050.6687693502754
-961.5532208271117,368.4839395096346,-1050.607667552096
-765.3553347620629,552.6168500750581,-821.9453464116187
-765.5379637987148,552.5953367868035,-821.8996998345793
-597.6154121214354,512.852372587078,-1138.8838489839723
-597.8010283600797,512.8569430916118,-1138.873891949304
424.4292610263414,-533.6411700561174,-1383.8352581658621
424.2923185445802,-533.6750716781659,-1383.9461895128995
-608.4235423466166,611.2072134673936,-1101.1959820440586
-608.6057707181332,611.2131615443791,-1101.1903754592279
-540.4527121594343,484.32323704202946,-1327.67058691306
-540.6324755641294,484.33582969661074,-1327.6832892535656
-708.8973571911301,523.9783055816324,-1192.8608335062409
-709.0772152924792,523.9827161035247,-1192.853314491651
-674.2369208730285,652.925904490255,-982.0732179110984
-674.4213835912998,652.9297484669428,-982.0633735827156
548.9304950221468,-628.6440171455366,-1181.6210921402953
548.8169739430983,-628.7026320397732,-1181.7488108345283
-661.5522458814972,630.4178125504982,-1107.014075337513
-661.7378144724127,630.4294396220865,-1107.0159567493597
-711.8000400439879,617.3008182527144,-1225.778690699112
-711.988922109998,617.3148366972223,-1225.7837734748919
401.3685274327684,-498.7519776510057,-1325.3253153441888
401.517226938554,-498.7169199527214,-1325.2112617442751
551.393043242784,-710.7297400397425,-1068.3957860358755
551.2902781210425,-710.8052981770313,-1068.526192992516
817.3960974046987,-610.4890309427442,-1034.8217075342313
817.3253775174185,-610.5682931798485,-1034.9743334399845
434.13610518390084,-549.333538173955,-1385.7542209920807
434.27601902459423,-549.2936966994965,-1385.6355709018114
615.5119321591033,-739.312337950171,-817.6189684187073
615.4292693162342,-739.4195367325967,-817.7548819892753
485.2201772332266,-761.5653550544522,-1040.499788539604
485.12079790162954,-761.646170416529,-1040.6288388646722
-518.0945837591489,612.8586839614002,-1223.1567084741544
-517.9133057829823,612.8412286871687,-1223.1386349749635
660.7319844126969,-659.2675866217267,-816.8008606275374
660.6695980579145,-659.3678423271273,-816.9452628914429
-660.9889362488086,619.1501273700698,-1011.696161856874
-660.8043922072249,619.1412047354263,-1011.6980979858552
-710.6889930467413,691.1701910669218,-1064.7928797356185
639.5897297318714,-649.1416227333566,-991.2954440895458
639.6787836383946,-649.0659711645977,-991.1584509312282
652.5645904922009,-665.7549263813141,-923.3900282814695
627.938795366944,-741.4985147079424,-1075.95284644096
563.6732387012868,-592.9205881423259,-1124.4142346638973
416.59223393836436,-777.3687078363487,-1045.620444225485
496.19326150016224,-781.3765766589096,-911.6916323447658
444.222400949396,-706.5913614710678,-988.1406360627659
523.2911349089695,-697.0125404969455,-939.2068407724083
523.2029071365423,-697.1171235230981,-939.3355140299145
-546.7900881775292,744.3141903164532,-847.1252503032284
-737.9949196041775,-5.393529087640833,-1240.303898264641
-737.7551028194902,-5.403625276514778,-1240.3281916897706
-956.5463247707864,95.75785354105325,-1172.369177770105
-913.9080403094443,675.8413615665378,-1021.5022564824402
-366.5709789326939,465.7785245332457,-997.777699702984
141.8029788930679,851.6223019594,-1071.2967264414883
-952.3177509057232,516.6289243826707,-1214.4732160059539
-848.7746969728735,666.8601373107784,-1185.499129145933
-877.892181931638,617.7507527467378,-1184.497532545924
-810.4374596490782,678.8757406641317,-1096.616819622808
-848.031553864793,505.9244114618574,-1222.4411177559152
-848.2450852355307,505.9046480343934,-1222.3680492780318
-828.8213918263211,504.3036496904585,-1226.922264517265
-1040.0976979526058,542.3937059020817,-1213.2328239347107
-758.939029880173,688.2290651299252,-1024.9544109846654
-759.3423719468591,688.1647184444754,-1024.794701563296
-601.1628289163434,502.401185793119,-1343.677607698565
139.4362761371964,229.4193243144755,-1227.7771937282432
139.7882945982032,229.41479947990223,-1227.8189506604913
-112.53750787896678,267.08256386072844,-1165.6494575821812
-433.47187229251546,725.7463348955406,-1126.7518657900307
48.812818231321536,39.0931111770621,-1217.5408413509265
49.042130899044345,39.0744069609092,-1217.5716768277143
-216.33616106210633,245.77706245696137,-1141.494748500345
-933.6378129940864,1052.1244519016643,-908.4988582042381
-934.5607458896772,1052.2564987234578,-908.4879277480953
675.3732795759227,-1184.9968789179254,-1341.0569791167675
674.9201664090383,-1185.434192217588,-1341.6834932117565
-279.57693961304284,492.8904436182621,-944.8593396447743
465.8597935145849,-1153.2403881847238,-1671.3634048877068
465.3343173797357,-1153.524059796246,-1671.909047086222
-113.44535709831268,392.39712300263733,-1041.0462643096198
886.4897574040298,-967.7178805795367,-1498.8216281169064
886.132078727911,-968.0081175846941,-1499.3940582050095
-324.0138170008124,458.74711339085644,-900.2910079278295
-324.2223194596381,458.71085769084715,-900.2245111267341
1005.4079703463717,-919.8670894299954,-1426.1408476162646
-123.11461908319149,321.43465722487895,-1086.7384107404077
-298.20009098985315,395.06758755925125,-986.7578266335859
-298.4141116323927,395.0470663039098,-986.7056483737354
-328.86604900290064,477.07698619956113,-928.810488900708
-379.9260190709214,489.98651408637096,-879.5978834028816
-380.13800765929034,489.9556384483779,-879.5380627354251
-325.1916846971092,532.247023190002,-909.3559276651174
-228.64441634918654,347.2978558708622,-1056.562456127353
-228.85953447752036,347.2933082931889,-1056.53813293011
-274.8910493444773,449.2841728704328,-1000.2987987391967
-392.7578681881109,427.8485777669245,-979.6658447864767
-989.122115582321,903.2613408399337,-1494.0403705002507
-1030.2012280354668,776.4499001882272,-1445.5356162082473
-436.0112175430023,428.98289355563173,-973.4086968405005
-948.5623936295284,728.3328665502631,-1558.4754228307218
-497.989243129952,377.1959675179058,-952.0348549565938
-533.4979610647872,462.4206135052296,-877.369505531317
-533.7027479108625,462.40082205847375,-877.3166666707289
-494.37537084679815,427.13584271074086,-972.407249288766
-494.5820200348695,427.1259630267597,-972.3675926349842
-508.62283204417025,426.88491320022683,-973.0397124497716
-508.8302601551942,426.87639603525554,-973.0006770146492
-547.5361579476158,446.8691737229462,-925.8087947533658
-547.7418569660855,446.85715104815,-925.7650014759554
-506.53205915173214,400.30146319998056,-1025.386922847599
-506.74107291736743,400.2987745474746,-1025.356447522171
-553.7982671877902,324.3411544788739,-1075.77969866675
-554.0052454266207,324.3394702983762,-1075.7474924770747
-601.9911307942041,462.96369192100263,-884.893083988072
-602.1971190487968,462.94999057281075,-884.8483234721547
-469.23525757347056,427.8955267680401,-1110.6861514164564
-469.4432267353931,427.90093924028065,-1110.6757775662793
-603.4406767632624,450.6516055488684,-933.825413612047
-603.6473988332226,450.64349913405385,-933.7889828577087
-568.0022283151698,407.3791553461258,-1032.5927295754464
-568.2080186326849,407.3798433604569,-1032.5692971221065
-577.4045152187027,410.4882856331064,-1034.4755597552862
-577.6099066393247,410.489872418879,-1034.4539344184952
-558.4231365982789,381.473505822632,-1087.9109275071148
-634.7633826170853,462.09466020813517,-941.5061917825313
-639.9165594869295,467.02388762635235,-943.1710321225967
552.4042361606803,-471.5098372211382,-1095.0797416061328
-645.6107451775656,479.32174329251825,-945.428827051553
-645.8185497657586,479.3229240891173,-945.4076275367853
-662.9336522886327,499.16156116965976,-899.9948357007419
-574.8531028790183,571.4323215723815,-952.348499438407
-639.8771948442311,562.4308981011933,-914.1626008750535
-557.199244075323,461.68824598180635,-1095.7153114224113
-584.4769861619615,607.6278636007586,-888.5421635065816
533.1060046330232,-575.6761534365927,-1044.13562032173
553.2918484765934,-603.6972048143297,-978.1677963023651
511.22698789979586,-339.2139251229304,-1324.019313776232
444.7207533199201,-581.2942073516199,-1128.649902856846
444.5968877985424,-581.3605066699106,-1128.8036976810733
577.9761921101592,-611.9772739939918,-823.9073564536577
466.764476536466,-588.3910714728946,-1119.1467987754183
630.3275249029602,-553.4758744588429,-855.0376704752607
533.7355612820887,-671.1216254177666,-822.7712231657271
-511.4640691358227,552.6782236589963,-1051.323961172945
-511.25563814999293,552.6604652454417,-1051.3129507523915
510.38639499359925,-718.1885819525602,-834.6870262836243
510.2957955988808,-718.2985360447196,-834.8413909121692
-691.4282115609759,541.147112888203,-767.9176480573516
-691.2273277335948,541.1513201122835,-767.9421373741899
-702.8292154313825,477.1854273217933,-871.1275670551607
529.794501439219,-423.55542348003956,-1112.9251567468452
573.9637723122228,-497.8635256461371,-997.7333250790907
484.8504189051337,-481.64390424563203,-1092.8324407197804
500.5838553130643,-532.0635320037269,-1019.7213887493075
436.1952857336495,-545.8940390553836,-1048.1571153295154
475.1007392230311,-605.7598056619198,-999.8190412456138
529.9302727948711,-610.3533783099455,-802.7166982491283
13.163062098509867,-245.5793928034578,-162.7717683829005
-595.2970381758988,708.6178037413163,-671.1177597485531
-557.5529950907977,638.9756120046674,-823.1569715579114
-557.807076933083,639.0064503277539,-823.1995294182627
-1126.1549146463888,1003.5732802303562,-1092.4369271257565
700.1565418734061,-474.54665917290004,-1063.5956853603184
-1006.4559093284624,63.016156030765494,-1006.520956330783
-1007.2162140324165,63.059992705378555,-1006.2986206186237
119.82454962535141,554.6442899061086,-1375.4938121742596
532.6080487577226,-10.252559786462763,-1250.5887109491434
533.3180230475723,-10.25604678960739,-1250.4372345229515
-257.9203567730422,293.31648349158365,-1581.7969112537128
-257.43653675338004,293.3362460365757,-1581.9572131278048
-25.58756403755123,464.1154991038019,-1782.9617007463892
-1039.6604787421763,458.4277213753165,-1652.0239835472923
-1040.161813219511,458.4258345340099,-1651.8629080622925
-926.7145650577172,506.15860728319467,-1154.3341037745922
-926.8476467302547,506.1119421706455,-1154.2279073975412
86.7716862898604,-257.206343796488,-1510.2693955396398
-234.85888026232158,405.3653723245482,-1404.1110047067953
-234.47613951682604,405.3951443045677,-1404.2574533901893
-239.48545278183104,429.4858162399288,-1379.2026330674362
-202.5749523066232,585.3272734151229,-1317.1604558677213
-202.25998652519408,585.3553290962589,-1317.2623191521554
-315.93443398909574,617.3633083677489,-1238.7983922174458
-575.6841950921953,202.11452015674865,-1483.8807449379574
-575.8424071292034,202.10663837821843,-1483.8222180325793
-362.22175315204726,537.4270456393951,-1219.6505748783882
269.5661543421858,-971.3550168636034,-983.1799654136591
145.530450380993,419.00461971731056,-1498.6762832055433
145.36299570915952,419.01350365602104,-1498.7007371815191
99.10382063495909,382.70329608056693,-1450.8831140317388
98.93612125808383,382.71181813806953,-1450.9059675207168
-181.92986503341456,395.2277461121261,-1437.9587425066265
-182.0992416915419,395.2292141691754,-1437.953509828822
-67.25089558664915,508.7406204802373,-1287.0244778144183
139.62230155371458,-695.4033278911377,-1348.402570799089
139.45863878347865,-695.4156536009401,-1348.4370394636437
479.67735949748334,-918.1829844156384,-1231.9180072216702
479.5277343246795,-918.2187871039282,-1231.980387518363
91.03326990749152,780.7074574224342,-1805.7620565457514
91.14006298148205,780.7358838895007,-1805.7598753916486
-145.75616996353926,529.9016954249291,-1252.3387931535378
-145.59216934809385,529.9061444709461,-1252.3540056608158
-615.6240281606772,717.7830072630672,-1280.65387012856
-835.7396691252659,540.057818037203,-975.9793529827416
-377.0415474036938,488.4454767815965,-1239.963378483812
-377.3040753672267,488.4037952501174,-1239.9162880428335
-665.0137184378649,753.8734482203041,-903.8513957403368
-554.1933074792029,860.9508294377438,-1236.506532618747
-554.3581821192302,860.9486620196501,-1236.4876295361917
-436.2063590370958,277.79254059988165,-1675.2714621635446
-765.3053163154642,618.1414230000371,-1270.4865138697257
-765.4638002254937,618.1320349176289,-1270.4523170570942
-899.2896900142,596.872235875129,-1188.656480796068
-899.4464123067817,596.8566194760235,-1188.6101620000177
-900.2646237508667,603.1251622535328,-1008.2318454538386
-790.2952586140245,516.5533012774556,-1079.0897626098258
-484.6791188616271,688.7436083180015,-1148.2119218573964
-834.1506848193592,734.4939212590058,-1227.8574814369658
-834.3115806365153,734.4870152484251,-1227.8287435302955
-604.6765847502762,623.7010775086549,-1084.7681837273637
-681.7725323872191,570.5650316220753,-1006.3101338341138
-990.2206012025551,341.87525861600716,-1276.9110329592365
-606.4481383762769,496.06595599239404,-1212.3244377533138
-841.3027347827182,610.916668201692,-1246.1694546754964
-841.4643729618949,610.9152791736745,-1246.1485499980815
-895.6194674358821,731.9995262557181,-1050.7009142837287
-895.7822368396173,731.9897804458109,-1050.673526382942
-899.3681834765904,738.3803457802859,-1050.9981741945787
-899.533606187868,738.3728583533107,-1050.9716773058353
-772.4581772068739,776.6458868763226,-1180.4297027362747
-780.0088351757267,584.8683560129961,-1117.8160010867946
-773.5159810942504,454.8210862905846,-1216.7322936415808
-783.6714237587009,647.4144986673473,-985.66130710329
388.8140604312438,-55.28612436032538,-1176.2846315321226
400.6728100374498,227.47794546109097,-1031.6882645851408
-557.8744906560996,629.9862777918032,-719.1363636489988
24.295972085472684,870.8744170175527,-860.8731639034519
813.7286617515288,-804.3752119717143,-1235.5442395754324
813.6511325167064,-804.4473589187847,-1235.6742646463947
