445.1769273279613,-578.6821669358834,-656.9387291841531
288.0894763249185,-665.7543937916673,-763.7801655836009
413.88009452885996,170.02067394756648,-1030.074496079408
277.0652876682771,-142.76599802447075,-1076.9344363151754
264.34158094344355,-171.68335782188973,-1064.3501788883154
255.1088708273481,-201.00521005766382,-1048.9035645284912
331.39996257013695,-173.00701144133157,-1031.3259661922818
256.8086514899676,15.719899067636613,-1076.3752288365886
307.41775068462965,206.86734156568153,-1014.2228006721942
-137.57264539210945,338.74310169651795,-1008.5139978143116
254.21286657629005,194.87894324258713,-1025.2285263045087
-77.01503389091272,349.1203569647108,-999.2779223794023
404.6417392244275,168.7352428021972,-998.7491070216156
349.7948519714455,1.7908683130960792,-1042.1489495856474
349.99478709780766,1.7972544009995726,-1042.1332842998038
124.50606758818142,149.92076268265828,-1054.1392164761608
124.3072152403793,149.92162888705485,-1054.154901588457
320.21653789367235,61.84676567372293,-1069.1042206203422
320.4164345894821,61.85258404163916,-1069.0878592129502
321.00648194249163,146.05484728375026,-1044.9414236143298
321.207725615472,146.0582530951021,-1044.919949816077
-256.9714571376608,270.81793633529844,-972.6385305452571
-257.16689292179,270.80615293337985,-972.5946453883806
-102.86013323230524,149.80823176244638,-1055.9930550706795
-103.05811803778997,149.8082876346078,-1055.9819520266922
-437.64170609020994,398.01242295850136,-809.458676601195
-437.82931165823004,397.98018496926534,-809.3881418265522
278.96653514998656,204.74029836775816,-1091.1430163704608
279.1660527806336,204.7397325284187,-1091.1167655110055
-404.8429340940319,367.76611070089547,-878.73488738167
-405.033802013109,367.74660129746246,-878.6781927010306
-348.7119520558074,313.0017536407416,-961.832459057846
-348.9050606088918,312.9940215172045,-961.7907145467323
-428.9222222603269,371.01861149991294,-869.5507517748728
-429.11273218710966,371.00083339283566,-869.4964757598872
-301.41321375097016,165.4264984090641,-1012.2368357821157
-301.2262616815936,165.43562720048922,-1012.2986950757588
-454.7390348592843,372.58161856193277,-863.3052187625256
-454.9296779909087,372.56558938649704,-863.2530600034468
-388.51509392983553,297.0029402188691,-903.4091924649726
-388.33350807545617,297.02497969542935,-903.4794435746444
-523.8721365349708,346.5263495995004,-860.1144699543288
-524.0578273044695,346.510252300392,-860.0579598530608
-335.0261447549697,329.5427337555781,-943.3912921631378
-339.1421002395941,395.8710956763617,-874.8023441348053
-338.9582074849293,395.8902155089548,-874.8512288425471
-649.6487237093718,246.9172322376736,-832.6365344855999
-649.8261757151347,246.90229974367534,-832.5668234094261
-437.66705894553974,223.17900801515347,-938.0309706631665
-437.48088855306753,223.18917190825837,-938.0931339851666
-538.3620168741646,262.04436468781665,-970.0265195394755
-538.5494739573182,262.0411797153565,-969.9888298133616
-512.5006022900242,395.732686053819,-922.7401820630016
-512.6898718193298,395.7272127933859,-922.7094688481435
-466.5745637820253,390.11033307397076,-825.3528717050492
-466.3916863109517,390.13306574555963,-825.4082103644655
-604.4221558488202,332.0653192434613,-893.3605045619703
-604.6058370136216,332.0575661499353,-893.3198061924795
-485.1577672716456,378.27553600454206,-953.7003462451338
-484.9712409399519,378.29023639060955,-953.7452815163615
-483.5626878902719,373.1799579390336,-859.3486914395507
-483.37756668262807,373.1947053344757,-859.3967385924193
-658.2882926266653,408.1605007816616,-984.0795707561846
-658.4751570726014,408.15895468558904,-984.0482535256924
-535.8509814042651,324.0707105026492,-895.473708917811
-535.6675824610247,324.08213225786653,-895.522252458552
-3484.970322391602,1528.5369258673006,-2742.899125817181
-2987.02390557807,2592.9272461042824,-2066.7285930034377
-2987.02390557807,2592.9272461042824,-2066.7285930034377
-4033.059590469702,1040.151303161404,-2879.564113899707
-4817.5782342586945,1097.2664578907709,-2991.073723704225
-3489.537289281498,1349.0059883082897,-3286.597339240392
-2987.02390557807,2592.9272461042824,-2066.7285930034377
-2589.232921603824,2324.145892042106,-2015.8030986039266
368.107416649514,-1002.0780019887687,-1106.3635012216077
452.40281105939204,-845.4902248951902,-1205.723264317107
1177.4882708874522,-495.68451656712267,-1162.226975089596
597.5163192734365,-538.6958660422674,-922.6526933650836
565.803953697703,-572.3838663265014,-658.9121262531013
565.7347687891057,-572.4922481782557,-659.0560564568905
-657.5366731249433,364.0409944181228,-976.1510315843608
-657.340974797531,364.03781415454927,-976.1688463263363
-780.0440390551398,400.755331902266,-887.937867272921
506.90954803943407,-654.1049188762171,-818.3596661332888
506.8300105806826,-654.1989518507269,-818.5036501218276
-550.403208532659,328.3118673158245,-1012.0345831534725
320.9182537095135,-157.2555369803434,-1142.6901698955696
321.80723181054276,-157.2215382819001,-1142.680545203332
386.40885576344033,-38.337427455454424,-1136.236154431557
387.2979509540338,-38.30337231424483,-1136.1575665150417
-858.7198977014084,547.2328836807296,-1281.1739425651208
-1236.2444510070563,435.92154340580106,-1282.7199941233132
416.4804907812686,105.96385966174752,-1054.8188250978064
-201.1784227043982,220.61562126080395,-1114.5832448933677
-200.33303267263497,220.69654458731418,-1114.8748322935407
-934.9486200536334,680.2624233480103,-1165.8627360795474
-686.8289841712941,576.7858918899503,-1522.0041025204466
-3002.5522005962202,1395.081618140685,-2585.752388028803
-2868.056837923968,1693.8342135096052,-3507.324565157966
-2868.7508486024,1693.9203214267973,-3507.2191494971794
-2577.627127411178,2386.325447633869,-3865.905707851963
2941.624535515812,-3771.86434813612,-3872.9691743200874
-835.8155830557681,727.9374216391474,-1192.544819063652
-829.5055398840095,622.2765159686751,-1237.6701138469296
361.68227143397297,-322.61762533625773,-1069.7377284157958
361.88381278203764,-322.6035931048894,-1069.7177993597081
-572.4081247664658,554.8100159488642,-1455.6654286554453
-747.1949914401723,675.5225005321564,-1137.232710843823
-741.1681712278792,379.7249225499618,-1481.2752514740569
-787.0577356909059,717.3206197102269,-1090.068924977767
470.6753813155056,-844.2520788863033,-1599.3246020256036
-413.50019641414434,369.02300504226577,-972.5272332390788
-413.69334882309823,369.00650904766655,-972.4754651953594
-639.4113094173581,585.3869587144089,-1522.6599108052342
229.88766181498994,-814.2174451818321,-1357.08636987787
-452.9896856358694,374.3719471565766,-959.8698824295484
-453.18418066249137,374.3573403220817,-959.8203374907454
-493.8854196525791,400.0347753329476,-909.8392168982213
-494.07597587477954,400.0163020704207,-909.7853494987079
-353.72776809754413,484.20631515875243,-903.3352410137576
-353.54280130890083,484.23665733537763,-903.3923374981105
-361.0227684797639,486.5307790571179,-894.8607255212372
-360.8361063052406,486.560371891101,-894.916738273098
-442.4225287368783,716.5112839187477,-1082.629278856619
-500.9807092888068,559.2050662793378,-1126.9555580202652
-236.256267510543,654.1009749791604,-1203.4623152138172
287.35796276382644,72.17294224677171,-1491.677851873669
-535.0707972807318,684.3734455039502,-1080.4784103450886
464.0456339992171,490.3351300468194,-1347.6288923024108
149.56097451451626,-976.8899964949909,-1350.4873328633873
-583.8858570766098,713.0158064933391,-907.3369139966262
61.77096774729596,554.2701175814551,-1346.87623204915
-238.04837301240403,698.348685727877,-1336.1993329414806
-376.9532290247859,598.2931276807928,-1245.1351057418458
-341.9411435310184,552.7011317285824,-1236.089213786343
457.9833148664547,-268.4477926392318,-1415.015570644381
-329.9765852660663,515.4198312356211,-1302.1811155698872
-10.85086346379607,575.8208388783364,-1384.5233439771027
2602.414130418124,-3901.115404303789,-4359.110694041458
2602.414130418124,-3901.115404303789,-4359.110694041458
-2986.4169216580367,2593.8485796060495,-2066.0185706410803
-2986.4169216580367,2593.8485796060495,-2066.0185706410803
-2986.4169216580367,2593.8485796060495,-2066.0185706410803
2165.160589962633,-3892.9408325580043,-3270.1864373685535
2602.414130418124,-3901.115404303789,-4359.110694041458
-3495.7581068253016,2062.454694836505,-3124.510507421838
1827.836637963548,-4036.216946797313,-3565.921108202561
-615.5638004531063,365.67675815797344,-1000.9780987930096
-615.3690015083616,365.6789682245816,-1001.0041342025136
510.1811181445685,-448.6980079723041,-1105.7213015919613
510.0727796865038,-448.7496552111802,-1105.8717200901708
443.0965568374086,-586.6673561922217,-1026.7932235012652
442.98283271998764,-586.7367228550078,-1026.9329097742238
555.455872064219,-615.6485927514316,-827.3101671555755
555.3638864229782,-615.7453835488415,-827.4575788369144
552.822679085565,-563.5810030447066,-909.5467846190855
552.7316523036855,-563.6634907997078,-909.6987092863493
480.7299154048751,-622.8878229015419,-940.4817045440548
480.62828955850466,-622.9703356484647,-940.6282963187377
513.5509667410223,-647.402228070674,-764.6728027857409
513.4638458687158,-647.5070092992578,-764.8144368337703
529.5095366224771,-610.4658310048374,-801.1789459093548
529.4280414583125,-610.5625778235598,-801.3255071478465
384.53844181621685,-624.4885245393157,-947.136354471371
384.4329244062047,-624.5671398239115,-947.278366155945
381.43631050689294,-637.5112812146533,-920.0332343109671
381.3323717474586,-637.59394471372,-920.1773160362327
-514.2093673851984,629.0946352963105,-741.6428132996729
-514.3993448856608,629.1317549015287,-741.6644769185439
-645.043230088132,490.79273313792544,-914.9602647751041
-644.8505068028517,490.78561477775423,-914.9678249026408
564.9308367594322,-451.1135150950192,-1058.8487340975964
559.5474674122747,-587.0174647184945,-903.5972442227039
674.6152959128871,-255.09719271015422,-916.4197648983829
675.4813245419343,-254.97783636786062,-916.1157354079444
474.9462569484418,-494.44025479313746,-1085.6243850042351
627.9040124797561,148.4907446389332,-990.9440690951918
628.7742558265018,148.47453427445254,-990.6398051141211
511.3352959064354,-570.623834960641,-943.8084857713493
523.588552996612,-593.2787097142515,-874.7920455449066
442.10455520449426,-604.3051390614938,-941.7109120723485
441.62940343216724,-604.6711821925923,-942.4034360825693
612.0411770496204,331.7609898153639,-781.9482957625479
612.8591484509055,331.6201505962979,-781.5604383320987
558.8828581153726,-89.86474668804391,-1020.4135871045115
559.7379698955237,-89.81486462000564,-1020.1003542905268
-231.60623588819126,453.6949286931887,-812.8859168002169
-230.7611056385206,453.87518629479973,-813.1606416144119
2603.9065884037823,-3898.7903852972036,-4360.976531025647
2603.9065884037823,-3898.7903852972036,-4360.976531025647
2603.51416439126,-3899.082425555191,-4361.483433132971
-431.38205725108884,332.6162243640027,-813.9046964517391
-431.55450469037083,332.5770599432999,-813.811127338767
187.95564380947053,373.5416051351298,-1103.3563757622178
346.58940073663007,80.29654063638411,-1066.6716322572256
436.60926635151304,-39.21086969430823,-1070.5966473315966
82.99033341804218,114.78630110805275,-1175.5759478006205
82.7958931757082,114.78566717740927,-1175.5872250827836
-396.1916236013381,626.1532867915325,-593.6238089790676
-396.37701712599113,626.1007762806336,-593.5589751955814
-250.0012482272066,448.96902691089457,-980.9917372467926
581.7173161790774,134.77247768431263,-891.3681275533029
581.5611344148297,134.79142215083903,-891.475817722713
225.5912074883734,284.89632776522825,-1070.4354676248079
-224.01665440533452,304.3878620172006,-1098.329923968759
-223.82895450180814,304.3977536471287,-1098.390220015899
250.19185499759666,198.614784326595,-1060.9489684080556
-376.26630273329033,407.65557781499456,-899.8099860987713
-563.9941787524692,309.04936449350015,-996.7652478303218
-564.1721878155981,309.03284455835467,-996.6956865458708
-597.4828588743084,27.022407825919696,-998.2449869212921
-597.6582297436114,27.022717676279864,-998.1687190377484
-258.9100869633302,432.0866970693676,-738.8896668580809
-259.1020445466204,432.0765699873031,-738.8621812693035
75.22148205669173,-399.29140886465063,-1034.2356515972592
-592.5002777361424,230.99105163471177,-1102.5345613584057
-592.6821972121801,230.9852457832251,-1102.4758663152363
244.52712037381124,440.26977954891447,-956.8466092054891
218.60759508313578,432.12732813304297,-969.8927921458608
218.44067275961712,432.1668914716859,-969.9533789444783
-230.91587024296558,575.6598764891476,-857.2464893582444
-231.10032467966127,575.6704708140711,-857.2388689186694
-841.5064548998331,235.38576925755999,-725.0232856149638
-841.6633515319961,235.35809830502953,-724.9185786759962
224.5162376447626,427.6784112484333,-1041.086873962725
224.35467712948054,427.71867342751347,-1041.152562955226
-79.16759179011454,382.11573963870364,-1111.8543177525885
-79.34580932759035,382.1388500086041,-1111.8826638309642
-188.53807709537404,338.0026803932369,-967.1278593666494
-188.72197463880303,338.01534920520055,-967.1404837919563
97.11439431518215,327.1959131172743,-1074.1788198789318
96.94615717690476,327.22413481323736,-1074.2383177421482
-433.63942000344974,284.7397485662399,-991.4075718379373
282.3532977836731,-471.56739549617555,-786.6190162467009
282.20137834157515,-471.6148876989206,-786.7139895226104
-126.65172680691443,427.86280770755536,-1102.0072936317472
-126.82842244121296,427.88805421386104,-1102.0390351940252
-353.7488357863314,762.0099648706282,-838.8165176385191
-353.9328808752554,762.0278412347325,-838.8091833535697
-453.25682426805975,382.8396999726452,-746.6517354589596
-760.271324183956,458.1459438345881,-819.3859877306032
-760.4475756085878,458.125522028753,-819.3303746422134
-560.9917824901452,433.5768557169094,-819.4376731050297
-189.91492128775644,586.5734330401849,-1060.0703184205324
-190.08965219036935,586.6076093710981,-1060.098365440404
-315.9846733972193,509.64910362558965,-1090.138180688659
-425.8557347643604,250.13944864653016,-1059.758210037538
73.13995993280417,755.5313692625655,-1162.828081545321
72.97747660600754,755.5840068248812,-1162.8937812140118
2602.675631525094,-3899.8943490503007,-4359.500579292697
-3495.7581068253016,2062.454694836505,-3124.510507421838
-2852.6146929683646,2403.327281215636,-3126.195974743846
-3495.0007240992586,2064.5507986381044,-3124.985350730784
-2973.0651084298624,2309.0202857923086,-2535.3456571562924
-2973.313083953722,2309.0743231039196,-2535.253906648217
-2987.02390557807,2592.9272461042824,-2066.7285930034377
-2852.7247565391194,2402.3538335040776,-3126.100811922762
-2852.947030563139,2402.428852741092,-3126.0342736399793
-2987.02390557807,2592.9272461042824,-2066.7285930034377
-3494.9608332032844,2063.562632251145,-3124.596373261449
-3493.201169563543,2042.9797110317984,-2510.986062023701
2122.1584921869403,-3990.767314702679,-4867.5197538010425
-645.951100233838,467.8899490721583,-708.1031695595908
319.78020750074853,-803.0039412102648,-700.8121637453557
319.66083178296543,-803.0975610602358,-700.9221909261507
-572.979598940035,483.8565279854655,-986.7508523975998
661.8706631256159,-613.7079280724404,-728.9007443422543
661.8043182177327,-613.8131982300048,-729.0428489453226
617.9875054560762,-636.5195735700939,-983.3671479401255
617.9032907341034,-636.6006478322433,-983.5132584939614
259.61834207309965,-548.4461397346155,-877.7959848064736
259.50132505475204,-548.5080657953886,-877.9223383700511
111.96361141724321,683.296902239429,-912.3225564518375
111.83181222768667,683.3843635856578,-912.4076209749107
238.27271235874616,-607.2074962860606,-985.167214609292
238.1557842978463,-607.263227896499,-985.2915411373951
306.16731418574045,-617.7409693886933,-635.2762363735237
306.06800096526456,-617.8388358307803,-635.3974643191593
-613.723073401419,444.1536055591157,-938.5576068436309
-661.737380541576,529.7955114150792,-748.9523700317249
1.5566263076372842,-725.2462656109744,-744.9175456519349
1.4244267669373265,-725.311187420034,-745.0139581667894
26.1357172047665,-1037.2606838324793,-958.0865941655921
26.010013546056847,-1037.3256690048086,-958.1872413977918
-1246.101385626176,110.65676097787252,-401.14174018193734
-1246.2362331654867,110.6472440039475,-401.0639478154675
593.4425797825173,-500.5989581969327,-912.72639742392
541.0519961786731,-650.2498635843901,-878.1852435717175
559.290585768936,-483.8501464546964,-919.2663539031159
553.4418482063558,-609.8768917191965,-556.1863448528602
2591.4703093087205,-4704.24082197573,-3502.673096978801
2591.560458605099,-4704.108095974653,-3502.6838209007333
459.4123579489361,-636.4253531828754,-807.5648158599482
479.2076552666975,-637.8402622477779,-751.3731366849364
-3495.7980443535034,2063.444263187091,-3124.897531553904
-3495.6304755570336,2063.5435234396114,-3124.894579853148
-491.41440003660165,636.1951413694187,-779.9835871056231
402.7785639533357,63.831418642790226,-1512.7395225684097
4.794278147058348,191.2978013751295,-1678.1036352024678
6.153216706470579,305.9837640675694,-1486.3786101465223
-443.8466073178635,515.5499578988226,-1250.2433736875796
104.44639754937606,531.518182722759,-1311.2109158875985
55.59009800250674,-56.47519212657659,-1531.740362954548
451.963166431621,253.0400885669954,-1333.4705766222812
-263.66878225794886,500.01249798282356,-1288.8453802650515
-223.78180552769555,342.6289402347206,-1402.8150401096198
103.8583288221371,-485.7758472610794,-1314.8515428950082
-179.2155485642592,513.104409700311,-1275.02247824195
-179.39663711033398,513.0862993503238,-1274.9873369074733
-244.70844741086407,120.93561031223787,-1399.5304172047947
-244.8862669537188,120.92878482670983,-1399.4877250019383
346.6984899380378,-232.16310156438968,-1400.3974212806384
346.88252114960767,-232.15619935927162,-1400.3951946356863
-238.78021441965038,426.20639078568973,-1382.7312096005496
-238.60732274238157,426.23182014395354,-1382.7929895731572
-473.83396824544883,538.7215887852107,-1132.796550956997
-474.006928627019,538.6926318817917,-1132.7365441514019
152.74204844848526,553.1544814741976,-1267.4297514700588
152.9334505266546,553.1644321431161,-1267.4376534654286
-238.50503403754703,466.0182157456464,-1256.4701125814329
-238.33104265817505,466.04191713044634,-1256.523675031906
-376.3057862990399,617.2951144847073,-1094.6396938296082
-376.1376681091875,617.3352442330943,-1094.7032990650102
-256.3479256169299,498.26751098217227,-1208.7763473890845
-256.1716449600719,498.29154921858134,-1208.8261884111396
-613.7796181950914,644.1586746765113,-903.1688865590116
-613.9551561325712,644.1167016616181,-903.1039102422844
24.686474896031687,331.2002665476489,-1418.6128752778252
24.503785617710665,331.20883309306754,-1418.6345853469456
-585.4069623195921,477.9986326921203,-1164.4969250818842
-585.5818870964893,477.98109875170104,-1164.444032972844
-640.0340795884151,512.5662278302515,-1087.7535597450626
-640.2080372016128,512.5431626005017,-1087.6957360625565
-408.1461504241486,637.2821339990472,-996.8876633265322
-407.9761775165738,637.3150678372235,-996.9392063651259
-668.7825825603205,513.4634384528521,-1081.2363709602662
-668.9541130147477,513.4430939043235,-1081.1815216624925
-611.0010035954058,438.6412567018422,-1222.3018910129858
-611.1752445860362,438.63147526049335,-1222.260029445247
-584.8266801349554,378.79455616925895,-1295.359686904984
-585.0027962064676,378.7895208284061,-1295.3255386730884
-567.6697050008406,605.8824337481652,-1156.2118643213123
-567.8451495555341,605.872941187786,-1156.1815975931202
-667.129135257727,441.901239679211,-1215.5290853489303
-667.3039885558284,441.89267032081517,-1215.4895731067297
-647.176630825697,385.6581048012533,-1287.56802700284
-647.3530791190638,385.65438020495253,-1287.5354623871604
-783.888816323085,397.1746979788194,-1199.1772423702298
-784.0610619509243,397.16481581400444,-1199.129995463611
-805.3930549781556,613.4112722573493,-919.3014503450793
-805.5661136012474,613.3843720700224,-919.2483961554694
-784.5778649982666,515.4815453437411,-1078.615464698432
-784.7504600311836,515.4663257876582,-1078.5709732689243
-813.192095276587,610.2406941524399,-984.1851108650966
-813.3656478165931,610.2204468618664,-984.1392668369602
-614.4048101743289,611.6554566547135,-929.6929902581724
-614.2375262411003,611.6819332542515,-929.7406207845821
-834.2682818242648,613.6064091589878,-989.4223507081231
-834.443406748836,613.5884598209219,-989.3792911566384
-852.1019422494487,521.2043236855693,-1191.2522856845715
-852.2776813043837,521.1970115376262,-1191.2166395893155
-590.7094735322223,593.5960961226078,-1053.6810393435278
-590.5364095119841,593.6104228387254,-1053.7158770732624
-805.2076693851538,469.1850473190823,-1223.3294738171453
-805.3817619516315,469.1824872562387,-1223.3041457635597
-728.7022398632057,502.26061963869194,-1359.8054611306645
-728.8813796582491,502.26585549176195,-1359.7959823797764
-717.0875029394616,467.25879544641225,-1513.5356381809527
-717.2650397224554,467.26657337323695,-1513.5364937953939
-2251.5716743129096,-24.983636584936594,-708.694035426216
1827.836637963548,-4036.216946797313,-3565.921108202561
-2589.232921603824,2324.145892042106,-2015.8030986039266
-2589.232921603824,2324.145892042106,-2015.8030986039266
-4033.059590469702,1040.151303161404,-2879.564113899707
484.30736312944066,-741.0096143398645,-1415.627454555848
484.18810493831506,-741.0612774465196,-1415.7469091093753
1414.608722577136,-2904.241819659542,-3030.013455191108
666.056179295899,-536.4767406718588,-1387.4982815038118
707.0378787990859,-765.4276456538087,-1057.213688079605
776.8314919180584,-688.8101518470384,-1045.0559420794964
783.6240376270615,-758.39785274131,-907.3171926089876
783.5556403498241,-758.5013973464775,-907.4588102817846
163.5941810239361,-610.8081373069742,-1390.5011249854686
617.3636726961381,-874.2178556304582,-1029.2703512930118
617.2772798636747,-874.31096855371,-1029.4012682303508
63.76842412123542,495.4539075895969,-1488.0056207383727
636.0244984006583,-822.2914041344333,-819.2439364128516
30.00171902006008,288.19354570334764,-1516.2848013057442
973.1508379045846,310.38899791427724,-1320.4740439852444
-160.99739133157703,662.053854730678,-1280.4547271246197
-160.2733923886868,662.1348152796631,-1280.5791327947027
630.9081996935121,-738.3893168245025,-1079.8217277893748
-411.7739356245256,608.9405245733192,-1166.7854097919017
-633.422561723186,632.6454885338088,-1077.0425340681043
571.4813262780115,-792.5850829417421,-986.0547785192463
571.1183789127153,-792.9526257670466,-986.5890934031971
642.6220340824091,-737.7420753197903,-848.9480138395486
-132.7832260466833,674.2885572701875,-1250.5900684820288
-409.1365523696478,641.6037410459949,-1215.7319221697112
-484.75932124919535,790.7038785762876,-979.031143496816
-432.52796871703845,692.3205823702599,-1137.8137554714663
-432.3672277663859,692.3611533477301,-1137.8743936515925
-574.8927448856055,123.08664612897573,-1512.1182390963365
-575.063448714636,123.08406930621771,-1512.0689298067562
-200.1783213808065,547.0821790403354,-1316.3905068040415
-200.00361376830259,547.096922695093,-1316.4260370701527
-402.22298234717374,730.4425330498303,-1186.5640423866896
-275.7032603813462,184.83327654716564,-1439.5591620823302
-275.5291727515898,184.83875365498378,-1439.5999294974065
-423.8656792631132,616.561914499826,-1142.9510185940564
-423.70106211441777,616.5895623977009,-1143.002774605051
-688.884756308615,538.1763911431616,-1119.7905709451243
-689.0524519798847,538.1522185862627,-1119.735038471228
-406.62953734327056,700.9768324306547,-1102.98842540385
-236.71714943514434,447.17338216730576,-1387.2872108069148
291.1712277510366,-943.3076319678321,-959.4760371089178
291.0129723567371,-943.3520935547916,-959.5318439165494
240.95217842774056,-680.4978636944738,-1219.6911265635508
241.1236314433074,-680.4805563038528,-1219.6556595455133
-305.50533940520097,463.13909218583916,-1364.4003536103985
-305.334548501582,463.1438865437387,-1364.423424729932
-918.988188319425,310.6040761750242,-1331.0595076046127
-919.1512339109485,310.59670571442456,-1331.0021621939882
-808.4248896887149,413.8748079798453,-1245.741483940622
288.10252278063973,-835.2417668496399,-1475.4423140328006
287.9524106992629,-835.2733131356138,-1475.5071476088485
-522.6560389977419,738.1253989346222,-1108.8416409874562
-617.1442551310153,669.3380407360621,-1044.9773986842592
-609.8555695763972,458.19236154470184,-1276.0149038920006
-683.7483417321221,452.8280628354751,-1545.9657516662664
-737.9516473339066,816.3577813389494,-1336.9789181210735
-738.1237704776088,816.3566404526142,-1336.9616165811287
-575.4979023553209,640.9794998877641,-1193.4644770150098
-1046.233368062136,410.4312734897691,-1257.484381150623
-545.5466262098442,693.9663223197666,-969.8678991875917
-545.3807362655626,693.9788646260058,-969.8969359539295
-826.3115955539187,706.3666362247964,-1196.4739718171631
-826.482295134934,706.3620691398522,-1196.4502180208174
3799.049041539967,-3375.5898189744476,-4964.329417197581
3798.9181181291833,-3375.665881647073,-4964.622073155449
3799.049041539967,-3375.5898189744476,-4964.329417197581
2941.624535515812,-3771.86434813612,-3872.9691743200874
2941.4909646403457,-3771.965601677185,-3873.2186082657404
2941.624535515812,-3771.86434813612,-3872.9691743200874
2941.497020866641,-3771.9589268889636,-3873.211041160173
2941.624535515812,-3771.86434813612,-3872.9691743200874
2941.5079220739726,-3771.946912270164,-3873.1974203701516
1827.836637963548,-4036.216946797313,-3565.921108202561
2165.268212850573,-3892.1733622994807,-3270.6211451934246
1827.836637963548,-4036.216946797313,-3565.921108202561
1827.8294702754033,-4036.178554906767,-3566.0097344582905
-3494.9608332032844,2063.562632251145,-3124.596373261449
-2987.02390557807,2592.9272461042824,-2066.7285930034377
-2973.0510295213894,2308.251427621554,-2535.3104441127
-3488.6637249742844,1350.1685227816433,-3287.4796939556804
2602.414130418124,-3901.115404303789,-4359.110694041458
2602.3514257030465,-3901.119159882818,-4359.257212048982
980.2315080799534,-717.1179190532774,-1260.844289628226
980.1650156502936,-717.1897122459669,-1260.9919160528634
988.4085984600995,-415.33100411339746,-971.0291461649995
988.3715895119872,-415.38791431733864,-971.1889038473491
806.6465818126022,-848.062488019105,-1098.2514261338406
806.5744239298504,-848.1497901588752,-1098.3845143098174
499.5934784315976,-996.5936673090195,-1231.0548950503196
499.4925509879038,-996.6692856501073,-1231.1707395935512
-795.3513158170408,756.9820649760528,-1001.5764880127911
-795.1807027558519,756.9814251509217,-1001.5909733880616
-678.3381121286475,891.3727523937478,-1246.0715835409953
-678.1636692128316,891.3572850847102,-1246.0625074240093
-719.4213203516192,698.5759779444248,-1180.4689989893118
-715.9182701209899,790.7124695824799,-1110.7221926656525
-715.7453830843016,790.6968067592318,-1110.7213261606666
770.7402864642944,-792.5396226523732,-969.0014892086961
770.8161991821914,-792.4530078817254,-968.8771677566799
779.969820364915,-743.8474346388815,-950.5287630511531
862.8625073451046,-611.7597704679473,-1265.3442613073503
746.634334176853,-819.9474780988198,-984.8056536814611
478.47297500080913,-884.3132364762878,-1170.3944851573567
598.4288831060171,-724.4454698825956,-1202.073079513179
744.9722879492867,-779.5943343719725,-995.5842006921699
680.3454994477457,-853.7142823930293,-875.4230196873169
636.3374348260305,-817.0419864659891,-1076.674990484137
-884.0839328763067,793.2045792597113,-728.54927743534
-679.8449112733468,822.9296390337457,-699.1229840308895
-559.8361305075056,492.8780473435533,-786.5885902191379
-30.7795483859271,54.438014707832274,-1389.4533916332339
260.4559973311013,325.53183738665143,-1267.6596413789894
32.15270635468295,282.05634089722884,-1309.253216668605
-5.849685995327367,316.22298426485247,-1284.5281913191875
129.6206005616941,363.79478828587895,-1241.5555061341458
-194.67577546568802,405.5742333022741,-1194.6604619556974
-84.33399869552369,396.3802388881178,-1209.0330713487938
-298.36666051572274,470.85225905190526,-1093.4800148379688
-226.51062734309778,457.2072784044088,-1122.7957771513313
-22.727971172286274,431.43245443774157,-1168.1266661415389
-22.914786687601747,431.42343407906276,-1168.110804758244
-319.42930191446914,499.130869564136,-1035.7032442413692
-319.60864944733066,499.1021837756385,-1035.6492963567855
202.34324166421015,340.0497778830412,-1262.4025076344599
202.53457074135963,340.05928182416835,-1262.4124611368816
-93.27762051687614,454.7255643641542,-1134.876263580229
-93.4662917502349,454.71799193030944,-1134.860623560892
-287.95673249049526,497.72397031838597,-1043.932282404066
-288.1419784191196,497.7040242662863,-1043.8918817162075
-324.1343635165085,225.99260556522472,-1314.8336673747954
-323.96004317952423,226.01770272475864,-1314.903533954455
-260.0627387948731,540.6224011848444,-1096.2231959804649
-259.88472031639657,540.65519325502,-1096.2791681852707
-186.17317193773044,535.0112231392022,-1115.6985697297591
-185.98994712351032,535.0367110325562,-1115.7421717820957
-226.05312731728736,457.7113642701554,-1122.9445047726113
-225.872903305842,457.73440551045854,-1122.9916364398546
-237.08932515598391,469.1733911358487,-1103.5560049848789
-236.90745327057272,469.1950319043215,-1103.6021618390473
-46.23301695358397,441.2938665754903,-1155.6782560897107
-46.046155960049546,441.3013613846487,-1155.6943739073147
-69.0687349730835,448.8605562990933,-1144.7976140086278
-68.88067376477089,448.86760992767273,-1144.8137195667277
-91.83867559752042,455.05671472316595,-1135.3013513272035
-91.65175579738585,455.06370045255795,-1135.316998634836
-113.55219149875852,459.63104658714735,-1127.7836125425463
-113.36757197191243,459.63678836507444,-1127.799027199185
-240.80863866898258,504.824036009297,-1118.3184210080528
-240.62594673391374,504.83645324496246,-1118.3471278310305
-605.3643017456276,450.86137545927085,-984.0366595877267
-605.5407443831176,450.8439922270153,-983.9868007457125
-346.33108054275436,529.1992900612469,-1053.1031213143895
-346.15314187277045,529.216402456921,-1053.1394252824716
-437.5643639574407,570.8061394961054,-1024.0329619487673
-437.38984965072643,570.8285803037746,-1024.0763924659216
-277.29004719692716,587.6971859351494,-1081.7796800405756
-277.1094989724975,587.7055616690803,-1081.799450022758
-457.5453613825674,610.8442843078166,-932.3136607982196
-457.3722443147589,610.8685631573733,-932.3542853681323
-622.6474965848587,483.6145047624669,-1070.8980015775187
-622.8274680209357,483.6071978489566,-1070.8656769409267
365.727344175167,-590.085968890127,-1060.0895596786652
365.8919186889041,-590.049252564991,-1060.0184412840435
-274.51347781695176,565.2990675913321,-1145.7541665932465
-274.3300193122354,565.2986295830902,-1145.761057701498
368.9945385596194,-579.6399476761744,-1095.828547646711
369.1589174977069,-579.6028997058781,-1095.7499254930347
181.51090292927742,-527.2178324926753,-1231.0622075501863
181.68501563028846,-527.1970200119763,-1231.002144519304
-693.5848563155265,568.8676640383086,-912.891034798484
-693.7646909358118,568.8563688573549,-912.8590828111826
-531.829899113726,453.4354464596602,-1128.5040484849396
-531.647609061006,453.4418282019818,-1128.5335067848637
-549.9472555436062,452.6479055475718,-1129.3416090330377
-549.7654048522066,452.6535800871321,-1129.3702310733638
-2422.4576061571797,3735.7998419855144,-2977.5443453684506
-2422.4576061571797,3735.7998419855144,-2977.5443453684506
2165.160589962633,-3892.9408325580043,-3270.1864373685535
2165.160589962633,-3892.9408325580043,-3270.1864373685535
-2986.4169216580367,2593.8485796060495,-2066.0185706410803
-2986.4169216580367,2593.8485796060495,-2066.0185706410803
-3404.9513726614646,1912.4488039535463,-3882.1295783769187
-2589.232921603824,2324.145892042106,-2015.8030986039266
2941.451702560561,-3772.929458896817,-3872.6768953693513
581.994174364125,-674.1232978310721,-1018.3808061963753
581.8995626703238,-674.2015960805647,-1018.5164848486362
-694.9102352540822,578.6223670189589,-969.8958574304603
-694.7307012798676,578.6262639547022,-969.9155939327751
543.6870527915881,-712.6226270306952,-963.7073665406282
543.5935680129436,-712.7090160323717,-963.8421077003917
-1057.1575790370975,108.68586231042656,-451.942518232224
467.7821118012461,-727.9134138507981,-1035.2358309017284
467.6839203869352,-727.9924591865451,-1035.36849953483
591.2992154467765,-684.824272642521,-846.6849469890252
591.2244288078517,-684.9234369389778,-846.828037454956
-583.9551122457817,692.2200446498194,-820.4358486928413
-584.1350569622203,692.252061762007,-820.4532035085494
-677.0029494555909,637.8353095563864,-948.790268313958
-676.8207792399911,637.8269570121822,-948.7945391865352
665.8553987603133,-651.5095408428446,-937.7529851548157
625.4943236819364,-665.3376208017185,-976.0659295467433
659.8207182513407,-676.740672279737,-855.8626384158455
514.4003905406396,-571.1284175991905,-1190.9638396605333
422.6208884177243,-586.0558382568914,-1227.6910326399318
645.4412595608268,-657.4891720411077,-847.4210513245463
537.0722692885668,-680.4595047551743,-972.8225630618706
588.0179261086498,-687.7591674174196,-839.1326225300752
-534.5057851577405,744.4055460822062,-860.3728284539574
-640.1205404503761,695.6536130996832,-675.375949071773
838.0324637542935,-798.6170544969641,-996.7704336868641
837.9513973072416,-798.7387092568786,-996.951925182263
971.0078841301436,-600.7059764979965,-1187.4498736947708
-997.4103674949489,252.84334790215456,-850.0952033132243
-865.1900106277881,714.152822641959,-1161.532804452158
-887.3399355480173,819.1078920965621,-1232.2974392449064
-878.2756232747874,685.087814587994,-1167.5488960216976
-982.6095132190769,625.708465576591,-1291.3327267531538
-3484.426277554278,1529.498282861705,-2743.3212596408916
-3484.54727830196,1529.54877545594,-2743.2620727219787
-889.0481993755071,662.5029455351442,-1088.0956222459752
-928.0917377409265,499.06394079188476,-1175.9998381448027
-940.3780758551438,623.946365441839,-1010.3191122513279
-913.4614928982787,610.5611170690087,-1076.5267002671908
-897.5419628501048,687.5448490486446,-1032.3101777444274
-900.4227042264804,687.8361765588893,-960.6482451579101
2749.657072245309,-115.72759557132127,-1518.459826552971
2750.0685031754088,-115.67969887133114,-1518.0393730570242
-895.8140031659134,625.6036544178224,-874.8164636741848
-836.6923995834542,685.369396225798,-1022.3556420017552
-708.3089167479898,472.23026296443715,-1466.9455913845356
-854.7493789842446,541.1248898095188,-1147.1284266861342
-736.4160595582532,369.6585843980665,-1401.51585025653
2941.624535515812,-3771.86434813612,-3872.9691743200874
2941.4140851146494,-3772.0612341324722,-3873.295090443077
1831.8180968896177,-4034.3046855375233,-3564.528687405336
-3494.9608332032844,2063.562632251145,-3124.596373261449
-3003.2611536765125,2162.54696855356,-2064.3702494708355
-2589.232921603824,2324.145892042106,-2015.8030986039266
-2973.0510295213894,2308.251427621554,-2535.3104441127
-1142.0425770488769,605.2894380493386,-2543.050335965804
-1142.9890656168154,605.472662632409,-2543.3252318084806
1831.8180968896177,-4034.3046855375233,-3564.528687405336
-933.6378129940864,1052.1244519016643,-908.4988582042381
666.7850954624005,-1155.9401954092518,-1551.4948441176334
666.3107882220927,-1156.3155461936005,-1552.1437665911328
1019.3050779375355,-1056.5494959204964,-1099.6319313221898
1019.0314210969053,-1057.0483682805632,-1100.2681998412388
791.1363636461284,-974.3992867525999,-1861.7077943991642
790.6967966986283,-974.645944824172,-1862.3434610948063
936.3693563886142,-1087.3793424119838,-1240.3508593632757
936.042519645988,-1087.7857439862519,-1240.9230272144264
886.4897574040298,-967.7178805795367,-1498.8216281169064
990.3498413040256,-1050.4152446535904,-1307.4950097762594
897.5998068824899,-976.333712941599,-1388.3412631960528
-970.0386774177554,873.9400752581765,-1564.9970190270433
-947.8429127754843,973.7020774974291,-1974.2243045663597
502.4084378776649,-970.5829678827299,-1866.6434111219878
-2931.119388308634,1678.6787908257681,-1643.2580503997701
-2972.7817081441835,1833.8441495355698,-2899.898503913561
-2987.02390557807,2592.9272461042824,-2066.7285930034377
-1056.5656306746291,930.1462515901098,-1381.1089896595106
-943.1396629764315,690.362807956083,-1704.3230032504996
-922.2745626103699,877.1884466235539,-1623.507522025371
-981.7263750471451,737.1220981579578,-1566.0520683032616
-1015.8654628888669,771.8702901530321,-1441.697603886276
-999.6582123432577,768.4149151275119,-1437.898473629547
-1048.0504542643755,817.2401409471995,-1496.9614089427462
669.8835332751358,-783.5513611663164,-1802.5526099286164
-460.8673254716095,400.2631194454397,-1023.4476073314643
-461.0753617139021,400.25834718670603,-1023.4148563086662
-194.08980067228526,342.36797810476,-1064.001880786839
-193.87932689989802,342.37311622114333,-1064.0252486788186
-455.18038376599907,364.34971260955285,-1077.5897495496663
-455.3885456163629,364.35042611182075,-1077.566335847816
-535.5142235667304,426.94230297116854,-975.0411300584327
-535.7209427607278,426.9349571079516,-975.0045267200819
-413.4223074313481,491.84212482762626,-866.5741896570596
-413.2210270683614,491.8678196225062,-866.6262062186441
-601.9911307942041,462.96369192100263,-884.893083988072
-602.1994269474029,462.9493021813618,-884.8480474805432
-469.23525757347056,427.8955267680401,-1110.6861514164564
-469.4426618721109,427.900367488037,-1110.675970018672
-513.5553494248762,419.35105892192104,-865.6735129147559
-513.359632691757,419.3754101511468,-865.7348137039667
-502.8267175590399,401.188258329319,-908.2549939990868
-502.631960302708,401.2065422117629,-908.3092642994839
-601.008627542148,435.9416816126499,-985.0114397942001
-601.2162484300244,435.93988005201,-984.9836900017013
-482.0135390302917,654.738715644657,-1700.7802869546658
-673.1456627275376,847.9785677076353,-1288.270121626925
-2597.1141059472384,3903.347435834045,-4361.045697660292
-3389.401197321835,2776.2983717780235,-3399.368887429174
-3389.401197321835,2776.2983717780235,-3399.368887429174
-3423.031124478648,1589.2632957554595,-2274.2452476209337
2891.356215816263,-1920.8553621556257,-2892.689315823279
-4033.059590469702,1040.151303161404,-2879.564113899707
-3484.2487001449754,1528.6631586459878,-2742.765758133461
-2987.02390557807,2592.9272461042824,-2066.7285930034377
-2622.127228331026,1959.4380513799997,-2000.6302910682105
-564.2188877401674,808.2186705152,-1494.479648026402
-318.9912409585584,449.52474992282,-1796.5143080544337
-1719.4583066303805,-13.570370668225252,-228.6561603913356
-638.8957433250952,607.5816019624987,-1605.455581609325
642.8407800473703,-594.807935179889,-1623.3908365137522
1022.8990552846251,517.674899077198,-1470.8667539913142
664.0054884221859,-541.8027405623326,-1689.6764304933993
-67.64375489260802,500.01043668653307,-1987.6464100972637
-695.7656024530454,532.7171024062985,-771.6705441494433
-695.5616764385107,532.7235491166971,-771.6985808973707
-581.5288893849909,633.7802337739367,-778.1785277212335
-581.7318544077693,633.8176770271608,-778.1959176704207
-604.4721862250468,458.016454010391,-1010.935227677487
633.5585615589923,-506.4249857375325,-909.442900433071
544.2567193800303,-477.86767162852374,-1050.1720327218902
488.09031860517956,-391.54770131315706,-1124.7152135480553
584.0589423381961,-510.5378701680852,-905.7146081492191
512.6053132039332,-569.2774911985179,-945.6667652352955
564.2167580121233,-557.2456613034146,-822.3644401663162
-1184.0178908296757,1036.168710409179,-1183.6740896031072
-1183.885947839048,1036.1953073521067,-1183.6740375773848
-998.3928473072738,980.4180173761039,-1488.773200819835
-998.2146318800715,980.4322703611765,-1488.765660954728
-1067.6827522112324,693.0132647441397,-1513.3920824170355
-1067.4647869922885,693.0331324054697,-1513.4029429109944
-1148.932261150029,929.1233842839965,-1079.3152716881464
-1148.6796864806192,929.1684610628192,-1079.3469864976505
-1063.8812074746736,810.683254868853,-1458.6155013824932
-1063.7356548488376,810.6848209379755,-1458.6322012797482
109.81899172701486,879.3871816401975,-1436.668175967756
110.58316651321167,879.4734730243514,-1436.7984776839103
64.27413697988295,255.065672628255,-1516.033361093526
527.4969316411714,-128.91030244166376,-1381.2682968806091
-1138.6997043594504,849.282222624182,-1387.406098862764
-1139.3456589805241,849.2545275952233,-1387.2567745659876
-3003.2611536765125,2162.54696855356,-2064.3702494708355
-3004.061116426832,2162.4927034656716,-2064.144325329128
-2978.0663166456156,1996.6219606714042,-1688.8190576045454
2168.3296806620083,-3890.1954122951815,-3268.78692361097
-212.72819436112184,600.8138453158126,-1286.4365595053275
-118.04494460832758,453.7467634365366,-1355.3543178443274
-132.89140436583455,471.9161426263904,-1334.161287557796
-1060.5893914669768,796.2601796550429,-1332.8260187889111
-1061.1104652113438,796.2428141316784,-1332.7043544276657
-17.723947257799427,304.06938495403244,-1433.6563130248044
-17.89285314509569,304.0620853521863,-1433.6380023764739
-375.72499854467065,565.687293184262,-1158.6457607124923
-375.8868113560737,565.6570585685472,-1158.5906841049245
-970.2094921399001,764.1730399022628,-1432.3293322392894
-204.34087167716697,530.4969191114658,-1247.0710400194794
-1125.2044985181053,460.52632011660097,-1524.9158470222662
-905.5234257115576,762.3504695098188,-1424.0124202098586
-285.8428806357909,556.1787713522855,-1831.1302921477597
-242.22364269517738,681.3987843308385,-1211.7990711785255
-452.6640542840327,623.9092325401076,-1108.7850094055198
-452.82634638388413,623.883854195555,-1108.7388021897273
-266.7928686005855,863.7116448208587,-1003.5128667478353
-401.0090768874232,512.2121443872868,-1287.2154488762899
-461.5492894973447,113.8995854192772,-1344.1604853156841
-461.71224232312983,113.8972697159683,-1344.1185147169456
-409.3728381877088,494.06239532735515,-1228.0203600260077
-409.53982762741344,494.0519269029794,-1227.9868463163411
-67.25089558664915,508.7406204802373,-1287.0244778144183
-67.07945735057709,508.74833148720285,-1287.0410082841108
1018.4577871497636,-5.712360036392503,-877.9702756575689
-134.9891840566623,508.6017308808499,-1875.9308777523456
-134.92537662401543,508.62876999199574,-1875.936310718686
-443.38745094328084,789.0223733501634,-1568.0274238956997
-248.13716939007793,731.2274670483589,-1702.554091103822
378.21242624214653,758.6243630066793,-1456.357240634601
-509.82583630177686,894.4702184397275,-1288.2395433906452
-569.948783612596,549.7254751813279,-1813.1767765427896
-532.6918587483942,776.7717912829017,-1367.4916125049542
840.125519718483,-414.63663741411955,-1600.766693984149
-572.4629932977763,702.6497611022444,-1732.2365846651041
-651.950211354041,318.3078999055113,-1416.7356744364547
-793.2519868120121,398.53435095902984,-1198.4013138421988
-765.1105546080369,467.22578784899844,-1259.6319942205039
-765.2705064930925,467.2189846994244,-1259.598401781401
-510.41679618677625,610.1413196826284,-1149.2297391156771
-350.9547977252706,604.2067897883204,-1734.6847605669932
-350.5510281128541,604.3038336651528,-1734.8459250851756
-787.6881448029203,646.0794504308835,-922.7494240278455
-601.1527751558127,530.9867852812142,-1137.8825075455393
-681.7725323872191,570.5650316220753,-1006.3101338341138
-681.6176502065574,570.5834379356585,-1006.3532188242662
-1076.9903790005653,497.98038082301326,-1123.5702228748469
-1077.14824784066,497.96628878627473,-1123.5191541904314
-974.5217024538059,460.30338421544866,-1058.8914898446421
-974.682270349259,460.29057787001744,-1058.8448231660836
-669.6025296569584,388.31979210628293,-1285.921907762156
-670.3824936732103,521.1535629317215,-1261.0766723835827
2602.414130418124,-3901.115404303789,-4359.110694041458
2602.414130418124,-3901.115404303789,-4359.110694041458
2602.2839571177924,-3901.177405954089,-4359.332258659424
2602.414130418124,-3901.115404303789,-4359.110694041458
2941.451702560561,-3772.929458896817,-3872.6768953693513
2941.451702560561,-3772.929458896817,-3872.6768953693513
2941.451702560561,-3772.929458896817,-3872.6768953693513
2941.451702560561,-3772.929458896817,-3872.6768953693513
2941.624535515812,-3771.86434813612,-3872.9691743200874
-699.1888293226489,483.42230741731026,-1307.6700368944616
-699.8583774940254,483.4485233504001,-1307.638682590545
532.2743884886593,-742.6966732673551,-1301.2204253993907
532.1766149780002,-742.7534080066505,-1301.3370397725682
831.9334273028472,-686.9271412476455,-859.0111931121381
753.3195316826958,-710.745626054151,-1022.5956547286214
691.4879079163111,-757.2550708546653,-1177.8603115431986
612.5448704189839,-775.9463281581552,-1223.1824167380785
630.1357099798685,-824.8159616916555,-1000.2282653323144
-801.5490180055759,657.3696499089385,-1019.5976280819806
-802.2348942775157,657.3847456592831,-1019.5477302401201
736.6171011876833,-653.2864112724917,-1144.8448711302551
790.8192153218091,-632.6115826539601,-1146.746657975777
-262.8713632091691,257.03713238113477,-1099.9126664067155
558.0007068148611,-258.5132426748839,-927.8311699544383
699.8791086425678,-734.3759996010289,-1009.9984637540393
695.4707203756767,-653.5260459086822,-1253.3964830382208
683.665498342356,-742.9834678839092,-1045.60176734247
621.0896159771429,-762.9608580182709,-1080.1395683070023
591.2538052918329,-798.0228968680476,-945.9085540086368
587.5261318297709,-803.8882168656146,-919.0633489584367
383.95483424635916,216.9767273352975,-1010.4052207261342
-459.8046800638258,231.54782175757126,-963.1479319084574
-459.989880162932,231.5356278941216,-963.0851205614383
-424.14174382781937,302.8124055898713,-930.984813677473
-423.96894967515885,302.8429540573105,-931.0706726415899
-477.97658604329723,158.66532477500468,-919.0333180499811
-478.1640434661337,158.65776737096283,-918.9673087154466
-492.7841592234217,202.94413372139462,-1014.210887836775
-492.9709197477061,202.93692361877046,-1014.1540432172852
311.5601987948368,166.1796207525695,-1044.7984563016823
311.7472637375758,166.16819791167683,-1044.7497326249754
-158.90976157584024,187.28227784606432,-1071.1589747674261
-158.71333102813253,187.28653131101888,-1071.1898715465175
330.5666407710936,377.0095009082637,-627.8895827515364
330.75311306090333,376.95912955163345,-627.8211241065961
-610.9174500441211,286.5827685530344,-1015.1852395551571
-611.1011522158101,286.5738264015784,-1015.1247816740539
-472.70269418303616,289.2645192550583,-908.6354977981491
-472.5284367499872,289.2881631386963,-908.710638541573
-579.2096836424004,380.39252426647045,-839.1354918156414
-579.3929375673958,380.3725029126556,-839.0763871522577
-1050.9355728827159,927.387272151789,-849.3319181534861
863.6238034741276,-1042.1661638782923,-1355.0739156292655
-495.5084791407368,373.308702776239,-864.3916321510357
-653.0025830608505,279.135227738183,-868.2967561661317
-653.1821524731718,279.1214068411205,-868.2360222594401
-702.7055211150367,336.6084705192916,-818.7034744579577
-702.8843301619041,336.5874431502377,-818.6372620602009
-834.7001868602312,320.6068130132172,-869.4561291522191
-838.9225487460444,1068.5076991576525,-1154.9074427755916
-847.6813990328644,901.6026714960091,-1277.0929205039893
820.6829474986895,-972.7176652140262,-1334.1956502978887
-1070.755106934854,837.3789215420792,-1104.4982099371084
-1159.0420104789291,780.8092308628753,-1111.5870175717325
921.7496965570451,-837.6602224980982,-1292.5805381967089
848.1980799476598,-752.9791284075376,-1538.2446346446998
984.5126594389112,-890.1224408772484,-985.3352617159926
-906.9032338266613,805.8398820092311,-1327.4435775088143
-879.4281526095853,1052.0516325165356,-1431.13016737609
-3485.1472544204985,1529.374224970743,-2743.4546556444475
-3472.531349446815,1547.7559689029958,-2750.5636413609172
-3473.2147198233433,1546.712501038799,-2750.164094438888
-3473.2147198233433,1546.712501038799,-2750.164094438888
-3472.531349446815,1547.7559689029958,-2750.5636413609172
-2842.0627642239597,1721.0963371837372,-3513.5408648789057
-3476.1504152440307,2085.8757099558684,-3124.6720308253753
531.4140063099592,-593.2081375997352,-900.7068049578829
-941.9378431090169,502.4143101215477,-1409.2043250993802
-901.5244020820588,514.2403154555412,-1523.264200847699
