0,1,2
-2233.585638445268,234.01485705094314,-736.9950163607457
-2233.5964064997156,234.01569268937587,-736.9876708342001
-2592.6804627518886,224.98511934568245,-1419.655125708933
-2350.359055780898,265.2155885938989,-824.112200192824
-2350.3700586801974,265.2141823985281,-824.1055016383101
-2489.4427569809527,290.4906836482011,-923.3669090696084
-2714.4795111187996,278.2860613868969,-855.0893365020767
-2714.491667045544,278.2854912469214,-855.0810516639806
-2558.082930891964,236.93902673683675,-749.8476692520669
-2473.3796032723917,183.09655169708716,-1213.1380940073018
-2473.366070434009,183.09499753336794,-1213.1451541104125
-2327.5710238391766,232.88835294450573,-1018.9618485085354
-2496.3434946580355,275.110950119521,-912.6357809836412
-2630.911919746547,338.532560568644,-1048.9910481036854
-2630.9240349069314,338.53282333192715,-1048.9837044602123
-2448.0649490905994,317.5202670055404,-846.5812383315447
-3430.3985015816897,239.7727789724598,-1338.091631727134
-2397.62912318393,193.58299530472664,-855.6576415234206
-2443.259194296571,269.79251248848476,-1155.6294739819043
-2350.9056389175807,161.63090079723617,-1059.2088233118993
-2350.9194366538118,161.6323898395754,-1059.2010032363441
-2353.4504659441236,159.19934859729204,-1057.7541119545222
-2243.149351612664,204.5015874099527,-715.1075925646671
-2277.668025423806,159.25171842611616,-747.0808045906225
-2583.822255395794,288.22549671471035,-1298.9739589373662
-2480.512408966866,162.44659389052072,-1181.275792063432
-2480.527288845842,162.44817744116222,-1181.2675090919781
-2402.5167001682635,172.8558806457758,-832.6635756705224
-2278.540905615176,147.37042323926644,-732.5124327899507
-2222.637732564638,178.0570454024622,-873.3466521597289
-2222.6529759043533,178.05723016646346,-873.3366187309493
-2360.0995893707886,132.75036460001297,-1016.1587862580037
-2224.7935063414884,172.8524735921249,-867.8825074987352
-2244.6381773476564,116.15366997457895,-892.6993269812214
1776.94281118461,-91.0687654838596,-1165.1178384533061
1685.9596968234523,-107.91980237355685,-1279.5501183611004
-2138.0032606392424,100.36136481104454,-787.1390231084397
-2138.7710016582437,100.40761055570573,-786.5898189213008
-2225.7123640078494,161.54727027696785,-853.4783236198386
-2226.4780086207547,161.56235388342674,-852.9447867833156
-2120.8342151606575,141.0078039904072,-759.8604733248804
-2137.492633891746,95.19754049462934,-778.3534823889617
-2138.2257300741967,95.24397600104716,-777.8166317099658
1524.3665464582352,-113.45397025188818,-1242.5747785253564
1424.001886647726,-134.3770101419222,-1343.2825280291668
1414.21862849449,-228.39304639596608,-1303.2140930780313
1406.541137465944,-290.9877439667064,-1440.6367861912247
1296.7938186721778,-357.9607554421821,-1322.1970899273597
1289.680326202242,-297.4441073464031,-1209.1973175709215
-1941.495185033594,106.65542982441352,-903.9856762752423
-1942.181951929076,106.70420382920675,-903.5503648000578
-3066.253740989116,236.7082456767256,-1798.934793317741
-3066.827408938179,236.73561520646348,-1798.5720140346475
1034.9185733068962,-213.42314378959477,-1465.7987279459483
1026.071427215911,-219.76636297931577,-1464.120724244077
1017.9173185976412,-226.26601326758023,-1461.9170300350193
956.543596174562,-315.1505336552852,-1340.9029087369959
-1617.2550349765029,221.3975408033447,-876.4433114653133
-1617.8239845612452,221.38569954853625,-876.0924722139113
923.9915782479231,-488.26325699535374,-1336.7015195223387
920.6135874146606,-232.54980503557272,-1398.6120208670413
-3426.5623421446394,1147.2769666543893,-2624.215749620179
-3426.4983718425087,1147.2921264298932,-2624.2410053522153
131.6545063674896,-554.2636750409218,-1601.1284306142268
-745.9771508715615,731.902569128909,-1020.419098654584
-618.1155282993949,595.431374866516,-1416.515518702112
-583.576616984364,365.8363363958768,-1414.1943543669076
-486.3432561394032,496.70280407588007,-1457.2246745763248
-299.7006762948059,689.8783378832825,-1308.0165449768367
-332.8295092764586,736.3868355753906,-1358.4302728872678
929.7248409810743,-482.7467043840016,-1343.9910503589451
-506.0564189068152,642.5006254790222,-1298.6891830435063
210.2156761426424,-527.8914951842975,-1514.61775572672
734.4218489466462,22.887193194723366,-1544.1203830415113
-746.1726854957161,732.132778356167,-1022.2708697631159
-371.45437381781835,679.3288346112131,-1333.775828367651
1.6554802777273576,-494.31312767245356,-1794.4913159810544
-757.359775173818,613.2728804916106,-1049.256290564821
381.4672460945201,400.0338006581499,-1306.6260930977949
381.6325876450989,400.01397085078906,-1306.5790060611941
-2080.8036917723584,71.37234330977347,-1283.0791827983735
-579.9192512618915,411.89409362854826,-1213.640739267678
-1643.6656501719276,862.040523249914,-1853.072678683983
-1643.968496741001,862.035104228281,-1852.969785390096
-453.7087552825433,569.1117370424159,-1208.4698208164043
-453.5372123982223,569.1258892310207,-1208.5090482199628
-2049.5383818920072,366.34733168249625,-2421.525605930878
-2049.8964258912793,366.3822530663857,-2421.42448245561
-616.2879356014267,438.6348583505913,-1096.5285047747136
-493.44212406114747,234.29216963647357,-1305.7836736634779
-493.2679360833941,234.29363148724553,-1305.8244863088762
-397.87626164449733,333.07005266946135,-1366.3945987604427
-524.0229498871702,446.1094544122084,-1161.315566230596
-757.7734274477302,458.7963372642907,-1408.6172062267813
-757.9484783127303,458.7972263049194,-1408.5901220256399
-446.2906887761255,328.55035945316,-1368.108479485589
-410.6048274725571,703.5724935588996,-1177.2796117498187
-566.616431412147,441.23604351754136,-1166.9224128795086
-990.9184938536335,282.663315555775,-1410.4702234648687
-991.0877868690809,282.6637275471908,-1410.4292809719907
21.364648265983323,480.0428477860894,-1450.8504312812718
-586.3329863579148,406.03039182947475,-1290.9893933077806
-770.3620386274579,346.03860201263836,-1146.4497941668449
-770.1985120384819,346.04773587409153,-1146.503687244435
-1138.5848890972402,293.9253572336245,-1201.5521238197216
-1138.7463650720997,293.9223086936554,-1201.4951970549862
-1212.4736246777109,319.01394053742547,-1101.5430099176183
-1212.6292976401242,319.00568547671406,-1101.4780531358067
-1150.7528453879308,399.66634167906545,-1096.9327507379016
-1150.9122854878901,399.6568229196863,-1096.8743464381216
-1052.5189033835006,797.6951569584331,-1947.8683808628136
-1026.6408156516766,210.67689853470043,-2109.6686133364174
-1199.096538563196,711.3899825241145,-1664.5170219742358
-915.3059446801216,331.219227725331,-1293.3682103787787
-1302.3631186520288,495.88553208835077,-1334.0681216206112
-1003.3989826934475,813.0776740942234,-1664.4171253466584
-898.8877620375309,736.5231008959724,-1833.9890788121131
-898.7006167550612,736.5500932859333,-1834.0275561472854
-1089.5200602311409,611.3420311328877,-1827.022955702128
-1089.3176822776318,611.3744618471375,-1827.0867985643404
957.6835355224558,-33.083854049311576,-466.73627753863747
-797.0997153904294,-96.86106085050687,-2458.1149186220787
-1225.4936108333475,615.901788092453,-1824.1014503994627
-836.7404461362607,377.0864285675358,-2370.1188513879415
1399.0467773385647,79.78152260327676,-829.3020086387052
-1133.3533239652136,460.83264179967625,-1979.5312989387462
-936.621694614077,562.8274943387007,-1741.503543055152
-936.9718071373447,562.8113881694336,-1741.3724601855322
1333.8796488176622,129.04285928724522,-882.3708184205559
-1161.7587269737037,613.7793492537367,-1823.8896741802284
-1036.420358797913,799.9608867408155,-1944.919051376584
-996.799579783837,-115.85799994391137,-2132.7930283470905
-1061.2451413824215,451.77412755539797,-1985.7665300197032
-1030.0466668283966,-190.78163835052302,-1860.1571161035909
-1512.039896621683,198.679296416379,-1037.6924055840682
-865.716903097933,406.27000873546416,-2026.7751035089454
-951.0943712969713,-5.619444600006963,-248.03992722368747
-951.104365975485,-5.637705185776175,-248.38176454786344
-1527.8243111788643,347.7055548471799,-1057.657785360179
-1528.3055005639608,347.6676471990714,-1057.4384653064287
-719.1962147101202,605.6989601056342,-2019.5313568266665
-719.3284033453868,605.6980456899554,-2019.508208566856
-1059.7022981226721,612.3665964420389,-1829.1440855584228
-1059.9742938738812,612.3614063770156,-1829.040736962248
1124.2000064578654,252.14206328219052,-1947.979057283686
-941.1410638685028,819.3321360489737,-1654.931316444636
-1850.0326089376579,406.49318876270223,-1530.8544033724763
-942.3714726504363,1014.7969026666507,-1513.8278010449828
-942.5651282846692,1014.773482200879,-1513.755885605768
477.236690824408,-35.62591003857161,-886.74522013208
359.17897503448637,-909.7492731269475,-1057.06213957791
-999.8649829920694,608.3989473235389,-1839.3299595752976
-1000.1622104444997,608.3830756470884,-1839.2089966169178
-1064.7087091092867,1091.699020287213,-1107.279718122873
301.03054550066975,333.9477672031041,-1440.8088633337977
-280.31422037045,317.4516550663043,-1380.669838869435
1124.1731552142453,202.40756546796763,-1180.8646105543094
1124.3314764794611,202.39087098987238,-1180.762940087474
539.9813425639242,402.163278640039,-1087.7973786094603
237.69399279764195,277.79613978200257,-1342.6916893696878
-331.59949890278676,810.8320260268002,-979.3544596882853
810.5831278805501,62.1171951518261,-1529.6509720602398
810.7761338693989,62.11863560354029,-1529.5808241310829
-355.13377600460444,-447.5442400336643,-1009.324661726952
987.9583435580748,-66.73381803753414,-1310.488826045843
988.1400632135399,-66.72448846585947,-1310.3838472471318
861.9176496364138,-59.50465841212172,-1222.5182370453028
1018.6397522205343,212.46371021543266,-1031.9949823842219
1018.806408919488,212.42891259258957,-1031.8685105792536
-418.35141194826986,-617.6141194426091,-944.781981794811
53.822891841957265,488.6384078203978,-1560.6188807620567
54.043299910462444,488.643442877788,-1560.6280338045763
742.2217759334005,-534.1480076746739,-1167.9154456638946
742.4220729753449,-534.1055046827113,-1167.82708467026
-707.3421726752822,-24.99356349235151,-1202.0219309463173
2230.9540710194437,22.90906278504583,-1428.241419315841
-635.3936048057451,243.1899890622963,-962.849170161687
-564.4741860750642,-9.489986217170074,-1362.7378731422393
-564.7069719114371,-9.483624214493371,-1362.6998645852498
-484.8669334756087,284.09868478417013,-1268.6927449485358
-485.1030268241141,284.09909987677474,-1268.6649911452382
-141.95088867679877,555.4888356125664,-1308.201098543879
-142.18562263045422,555.5105359721593,-1308.231795037817
-577.1459735526083,243.39953011989786,-833.7709411064727
-577.3719159879981,243.3858369881823,-833.6964150099141
-576.3058902290529,38.44448333400347,-1098.206131497279
-576.5358923088708,38.454843023364916,-1098.1569816871486
-499.2202352556004,322.30770582059654,-1244.1499440928644
-498.9904518595825,322.32413634505207,-1244.2215759872645
-68.57080183868116,452.766372268094,-1294.2288729181544
-68.8007790321809,452.8027485990111,-1294.2779294973468
-523.3020014901348,155.6909880186288,-1187.2780453107916
-523.0700730923433,155.69560289894227,-1187.356257336113
-666.6028130365065,-153.08588495119076,-1177.6391924076725
-577.005519605191,392.0743211450303,-1166.0514291208247
-466.2720172910491,417.529130384048,-1280.531201195785
-502.94360152562683,-3.38666009392364,-1284.1691790842674
-503.18201852659735,-3.3706872485727417,-1284.1654344664914
-1903.4600466156542,196.27799699239412,-659.1367232537826
-1904.0183307873256,196.3030858031635,-658.8115036208428
-531.4180428724887,236.71132086270885,-1301.3017900445577
-2018.5189720083529,179.7612604176603,-760.2352673849564
-518.7013255212813,-294.93318830022025,-1678.3553198742186
-518.9339817722777,-294.91405730437816,-1678.3833937500897
-275.45122166216566,786.4398707587467,-1180.5250268603827
-275.68000192386916,786.4872618729923,-1180.5555548176474
-969.3704111908074,304.26401253818176,-1362.3353590071342
-969.6026801011664,304.2688079907064,-1362.2907989137743
-624.992755692682,44.13534781554435,-1552.9952849617146
-625.2228202560115,44.1587213201576,-1553.0062548565345
-543.7285123200692,15.624928876734812,-52.57301386055974
-1141.8670064595158,378.1631579673114,-1308.27353074572
-1142.0946079520163,378.16226229697156,-1308.2159125482806
-1098.0680436530981,378.9756027882452,-1491.392763947892
-1098.2972995419038,378.9820065184142,-1491.3550253285175
-1314.9324348297164,121.66492631285514,-320.94467238126026
-1358.4310040452226,131.23105694704998,-343.2644158682212
-779.378137504016,331.6411001920903,-1109.9525345007412
-653.4765192967018,164.32076930137228,-1288.0837123207962
-690.7278826799501,436.8400904364827,-1184.9284332522398
-728.7586055004235,71.6604829859365,-1430.30568568428
-890.1698843352789,322.4469790679117,-1246.8137932033421
-813.5411375332483,369.37350432897546,-1281.157145194293
-712.4885403590914,625.385081981818,-1019.4228617169636
-784.5828318757173,220.19510062764311,-1403.023204454719
-857.633833197887,333.07750110763044,-1404.5188620482286
-954.7539565820999,301.4238749832578,-1169.1603297132092
-979.18835624716,588.6944891992011,-926.0355132659671
-1035.5472424827497,550.6756204519725,-972.1381955668814
-710.3524026521985,150.45373830482026,-809.5052311656631
-993.5996864806705,405.15482687396,-1303.254868276943
-1087.0149914915564,424.2660674768237,-1200.035872730055
-1162.5803247823362,549.0108371595662,-1033.6465778779605
-1228.5732307109358,597.0740670240073,-987.8642579661052
-774.1832166193917,121.77900310526913,-749.9311634070514
-1304.144887100364,506.54350952268504,-1166.709009891414
-1295.6025420134063,453.87383180618184,-1089.6675012907333
-1294.9424890429436,427.7101741916144,-1154.5920768928204
-1367.8388148923643,354.1822494037669,-1160.905855333194
-1436.3144958640644,461.75844404934014,-1066.2491279400351
-1439.6301548020956,438.206170459852,-1134.6730084880862
-1032.4824846161187,-14.897853009891184,-2061.930515560298
-922.8008643453012,168.31629719078649,-690.3418983448094
-1521.0170422588076,582.2715083246604,-1259.8698629709222
-1638.7834640148985,444.31727877112064,-1029.4764737137773
-1751.1714807361404,463.90637422398027,-1040.0222477794673
-1685.9660587822425,612.2166437663353,-1213.1705119450874
-1721.5295969116476,498.31592529318453,-1038.1213634076905
-830.4538569729624,41.81571185460144,-140.3812893939482
-1298.6157284831913,137.09102669964602,-474.96184213548634
-1332.6218468714724,108.55469548884666,-434.5172705183413
-1433.9025744041833,105.54769493134687,-514.9910927049932
944.9273742658208,339.7212430814256,-1782.2694662932124
-1327.6240987762028,-2.7302839067511133,-232.84116130749211
-1327.6341395696493,-2.7305026724403536,-232.9300514068565
1001.3407313666721,650.6009591264225,-973.175871791327
976.2289854588479,139.32833569144108,-805.3167394747642
927.5900143105787,280.50711598915825,-1005.232556887404
683.350192568509,132.21796644978468,-1181.8371554030819
631.8879816292823,167.48449285469772,-1327.4764691781004
355.2954459343686,-580.7970732629254,-1436.2222144141622
621.1544527840216,-64.72313824868363,-1045.673531813666
-407.2459507933483,502.28460431949554,-1047.8322121152635
-497.7441808201435,622.1361842996939,-952.6206832592154
-803.0093508007833,368.4881808162034,-799.3466361625863
-315.28055690860566,335.4276046002316,-1120.1417951786432
921.283369715813,92.35196191946075,-1026.237529257863
922.0207740791012,126.70399985355664,-934.9197935637922
922.1567938329526,126.69154378992583,-934.8175110987339
-509.06837155681643,23.874957803471812,-1063.1772306866274
-317.7899964500157,170.90815500071835,-1067.702586506788
852.3079445313044,-37.936001363189405,-1011.0497882202798
852.4547332549913,-37.9318110392189,-1010.9486752428154
-304.35388438504896,-487.0993913308189,-984.1866182968662
-102.3418816441191,664.8641105513802,-972.3918720136876
-102.52188056605473,664.8688721537239,-972.3924037016408
128.04327974072746,632.2188232828707,-1045.2291131007846
64.67472163325446,496.0830424075728,-1238.2580696920218
569.781012291809,14.854224288586886,-1131.4367096985218
569.9499521855195,14.851573444952914,-1131.3604713460857
365.0689446777871,-153.823449827101,-1242.8300615995688
365.2500751283069,-153.81894380815143,-1242.7833006232277
-587.0421946874249,596.7058981231629,-924.5759346628095
-586.8810040455239,596.7531685343378,-924.6529106846418
648.5747320340494,0.6284672949659087,-1085.8802685012379
648.7365423835912,0.6272993613803455,-1085.7851367811618
581.0293003948718,171.69968592333106,-1092.5006185223012
-690.8963605435677,1.376559500383351,-1048.7967887673603
-539.0988122556325,101.40282203651054,-1083.7469358001324
-672.7991774031985,85.69151353460582,-1117.5302453002287
-672.979148280435,85.6937269549442,-1117.4710049249043
-440.15112410560437,267.4510839880099,-1176.2716185629959
-440.34044944997135,267.45321921469326,-1176.249201579966
-504.7323733604486,588.1265534785804,-742.1348539012992
-504.56149933891174,588.1724761397844,-742.1975345147491
-431.4350665686551,480.0528167673688,-923.240749770988
-426.50744906938775,47.613967597070655,-1102.3853394306645
-426.32545766759796,47.61337519159757,-1102.4380516239949
-587.8086483111123,116.97862750568181,-1082.9139839251898
-435.41021406391627,-591.8250229700765,-871.4661031010813
-668.5293762546431,344.38635044351497,-898.7770507832848
-668.7143320643405,344.3734568740909,-898.719302408009
-684.7756987779792,405.1693124344094,-959.439728656425
-684.9597612887044,405.15746901190613,-959.3891658765108
-749.540296921497,52.26605045625298,-1131.030050338802
-749.7190576491217,52.27325170851443,-1130.9815139989828
154.70482605535446,607.6723937702359,-1190.1695981830455
-268.50820013043875,351.7144552735168,-1153.1101160600153
-818.5713984468023,506.64456524170845,-815.5486703228199
-818.7502655794937,506.6196107350917,-815.4856159328823
-810.7715837174196,642.1096432751265,-1156.7473503525198
-810.9561736372083,642.1020143928798,-1156.7108212318224
-915.0919845401304,218.13508085704524,-896.0353523663568
-269.1431250262047,-626.0710006171632,-1071.3773714611225
-923.0728068332811,452.3525154191734,-841.9922566691761
-923.2455035509262,452.32988969169133,-841.9254113943158
-918.1826360414269,554.8582381198629,-904.1173009426966
-918.3575673086157,554.8399718298792,-904.0604159126011
-493.17105503839235,133.80924705936357,-1158.0660729930514
-635.9936247474442,242.3978076973467,-933.4548119586473
-614.7553900361039,186.57136843133037,-1089.8724301462307
-609.0296872102467,416.9834242774045,-1135.7518516778166
-1080.0266662697438,354.80625877276833,-857.3199146954821
-1080.185261389894,354.7901566560614,-857.2482140453646
-667.6351018855783,356.4770870677571,-1092.0012433166523
-1226.1067197547845,235.09107469683076,-1197.4934057442058
-1226.2606483004772,235.09828530136687,-1197.4360379082602
-1091.8669892312175,657.5157444883778,-1031.3037089397833
-1092.0283634890538,657.5045446011402,-1031.2568704719772
-684.1608098569744,441.55044872602804,-1180.808068415864
-894.6595507431723,187.52271050332627,-840.5202653382137
-798.7386885498221,487.5804255368282,-910.8014540083874
-743.681399451653,443.3523026561043,-1351.3376060860658
-992.1479559807409,340.7830529944109,-800.1219128915436
-896.1126320594922,187.38094525778388,-1085.7253315619819
-1379.7498800674343,314.22991939493664,-1146.1646395024554
-1379.8885383523868,314.23093659736656,-1146.1101572009993
-965.7184769347817,367.05549155482385,-958.0830637840888
-1019.541972071322,275.41844441288816,-1008.9215703092993
-1078.7139330287298,11.606658470958685,-1071.1535681242472
-1127.018960320926,237.18579404931717,-925.6068455355459
-784.751845065473,341.4384652311881,-1666.8218309375868
-1029.1192033514303,396.8790160920699,-844.1023998305258
-1135.1453572885769,282.4953937724279,-897.0778707847381
-903.5180038540287,269.0726222651604,-781.8629835369686
-1392.218794533744,522.4814625467717,-1384.1811990591243
-1327.5170746108374,261.7143646691223,-927.9840724354601
-1396.5142148984412,459.30540973217165,-1279.2083291901777
-1445.6599170840504,276.6079556999821,-1075.6755158089422
-1728.6332160138977,38.30971743081767,-1604.86375036281
-1749.8236498117544,384.2453808808939,-1187.4887641647017
-1212.0739095403867,168.41023541845573,-784.0278063033663
-1177.6518638316604,28.421798485219202,-732.7602640633603
-1244.2469339832867,160.56138082451636,-737.373636676344
-1233.7834191113948,29.66710206661506,-641.300057156614
-1292.2462427742093,59.747398188851854,-734.5354139728755
-1293.0644534067292,26.66440193769984,-634.4958714343379
-1381.0126047758354,112.27588659030243,-644.3256170723129
-1387.740399879753,84.55320211760733,-658.9146952404341
-1387.086997426942,87.15521466793854,-661.3561334505684
-1803.2992912677041,172.03595218849523,-738.2884001685162
-1651.8526384320064,171.90496944459395,-589.0388510791947
-1751.5558958300828,159.75730900474218,-552.5903163624545
-1877.931724043956,224.08299644958942,-624.4180138145473
-2681.940853188248,510.4850931110377,-1098.9614569877217
-2668.3260113671276,524.4620473953402,-1092.6328114716314
-2667.8686454921985,524.9819645799162,-1092.2708278334662
-2669.114434146502,525.4469352526443,-1093.2524683454405
1448.107706540703,44.16039429934467,-919.2924427066994
1267.4442737774602,-676.0764294885826,-959.395398450879
1289.504065322075,93.86430344531135,-966.3239440729558
1244.235098656498,-757.0664057306244,-958.7823550627737
1076.2265302485332,-101.79973278024949,-1178.1230866546223
1072.05878912399,-23.233407627969154,-1089.733975941127
840.9707188571352,-1060.4766870651972,-912.9411408002219
1398.7032963971903,51.168916801020096,-996.1286573558069
1398.784590138242,51.17639345577353,-996.061612800213
1392.7652471133813,-5.926602231713876,-999.7449579442402
1392.8493742315748,-5.915286257383929,-999.6753969065055
983.116636010026,-27.840060160111218,-978.659200465086
1345.5688927530848,40.08340645946928,-908.252319252069
1345.6528409873106,40.08906577438208,-908.1757809249493
817.0325227200923,-53.92495555728054,-1179.7108347284113
1224.8927832551772,-15.060231068324896,-1050.7033332276303
1224.9907577839372,-15.05139069572354,-1050.6303305729184
1201.1851126267875,38.3816132484689,-959.8732221974213
1201.2834603199228,38.38617105919881,-959.7926745976956
656.2695307550694,23.83942282447542,-1202.735238791607
535.0394814461675,24.081815862912084,-1258.7443925894504
534.9136180499219,24.07851883024124,-1258.7891196960456
1042.3318682219647,28.687419772812845,-853.4056953229539
1042.437618736656,28.68961680912446,-853.3156730255746
603.9827593787464,-232.2569215947374,-1050.2816391347267
976.0326876523807,-36.64440049191617,-1156.370869785899
976.1579896283057,-36.63584796013876,-1156.295309608011
468.650673012671,111.30364441181197,-1160.2093914217594
468.513786515758,111.30732525464656,-1160.2647481560239
870.3225424635432,-87.60641730388205,-996.9693126383227
870.4506923877806,-87.59662940150007,-996.885243477133
918.6144231588338,22.3727578020826,-958.1630844334759
918.7395164553252,22.37337262314694,-958.0690076352547
912.6304323987612,19.473861483553094,-959.0659551745086
912.7583278110794,19.47393171149205,-958.9677889172925
-345.2743773072115,-114.66770527410978,-1206.3737321233189
-345.4309829940993,-114.6646238828013,-1206.3408391579278
-386.1336597517467,191.91722419212746,-1174.96621858237
-386.29532892236045,191.91200381780428,-1174.9292089777816
-445.51259346428924,277.4635340085254,-1116.3895280138418
-445.6749906025501,277.4533992766618,-1116.3465630966955
-457.04163002881006,278.07692899913246,-1115.159592864657
-457.2066286715817,278.06777453692916,-1115.1170502586876
-484.6579740931654,-40.621284938600276,-1132.2202323117658
-484.82371852812327,-40.61851565139685,-1132.175028724397
-483.3319099106022,277.94666839969483,-1113.4185551702838
-483.50088099986743,277.93956985516087,-1113.3769143986983
-461.9664256486207,377.04863998795486,-1057.1754487988494
-462.1386941906766,377.03908761882656,-1057.1381220690134
-479.07275208160513,203.40103101675075,-1163.8992034843668
-479.2458196392673,203.39888356532003,-1163.8645048959886
-472.85086365767177,130.24447796989347,-1155.186153423124
-472.6827297796841,130.2497916831971,-1155.248700212864
-504.18903931750737,371.61108256320875,-1062.9900822708864
-504.3677521257673,371.6040614895309,-1062.9542154409853
-324.35005673967385,47.95382278737806,-1221.2537361421473
-324.1717968633311,47.95293716132417,-1221.2895454838178
-574.5924668558015,278.32917054664273,-1111.0063417469066
-574.7712683048221,278.3261103753048,-1110.9674655030506
-349.11805496378184,66.904376783049,-1217.4872226489163
-348.93643101616465,66.90334442271923,-1217.5211321943898
-450.9468980178542,279.5460461199595,-1115.549313026833
-450.77072527618606,279.5550259049214,-1115.595740508081
-420.28171687490595,200.00606902048838,-1169.7297617145955
-420.10226763083404,200.0091528666472,-1169.7684031544209
-398.80479228251517,88.8841091061226,-1210.7433775522559
-398.62339930363316,88.88265676753372,-1210.7752456158785
-711.2711563124659,255.5398265995083,-1086.3164658075073
-711.4482822614536,255.53626286313147,-1086.2730337495498
-436.0877951222498,101.65534351081854,-1206.3783847139202
-435.9056673306245,101.65468827293498,-1206.4094632025003
-809.3382592577178,318.909871996477,-976.9773593201771
-809.5123975050932,318.9000353743713,-976.9219778920079
-533.1515772063358,279.2241160459426,-1111.1969878666337
-532.9738319529188,279.23032973731995,-1111.2374929355433
-519.1375277430444,210.0916258796731,-1160.5188361994194
-518.9595650436343,210.09360095583122,-1160.553042672933
-863.8791594171756,309.094392679566,-1050.8390173146176
-864.0519073521291,309.0893736145698,-1050.7906304672326
-876.7357972990649,351.58538143968565,-1006.8790509681573
-876.9064649958577,351.5779736754275,-1006.8301070655725
-930.9113307446491,294.8062051053103,-1020.9070207436627
-931.0782594480811,294.8005355471923,-1020.8556085511578
-935.0255501418997,301.8222477820271,-1022.2294094554412
-935.1907103490182,301.8183644916822,-1022.1800959560336
-989.390447674601,245.22241758825217,-1024.9060231563071
-989.5544964911402,245.22067358282038,-1024.8530161811022
-991.7468990882505,253.6364852198867,-1027.8237166336864
-991.9087454236928,253.6358836010712,-1027.7734564663267
-1043.9110671124117,271.271640246914,-1060.7451076635743
-1044.0712976265304,271.2717072617643,-1060.6955692983245
-1044.2235509828558,280.73802800426057,-1063.862485624455
-1044.380955133178,280.73924073066803,-1063.8157766826046
-1099.4481946105132,265.4289218783142,-1023.4331430583612
-1099.6011061415477,265.42936686571886,-1023.3819590388339
-1098.250994975955,275.28398436966836,-1027.139897193129
-1098.4011878369718,275.2849866046307,-1027.0917609261726
-864.1706154773102,342.51143669847335,-1005.5967863412201
-864.0207484378996,342.5164800942994,-1005.6437853483809
-1218.146580052168,315.2337773209751,-1091.8025198317391
-1218.2911567133058,315.23536060436084,-1091.7561127164056
-876.8691357635804,352.58700490149414,-1006.6028172216118
-876.7269130800789,352.58986774947726,-1006.6448644170661
-1249.4432342711216,308.89910298234565,-931.2829919116678
-1249.578997765198,308.89736179108024,-931.229361347913
-935.0640503975765,302.8486925190441,-1022.1185705207919
-934.9273271142665,302.84791913980445,-1022.1607359674141
-985.2755871642198,323.12735134385633,-1053.885970098115
-985.143195892553,323.1280792492121,-1053.926028358425
-987.555669969355,331.05634805670337,-1055.347033400657
-987.4256762404245,331.0564769517007,-1055.3848391322385
-1045.03013260025,311.74732320343185,-1020.1827428617286
-1099.9323576908007,256.57656547205954,-1019.9328317812286
-1544.5551065177171,411.3144600591599,-1010.6440635375562
-1544.6704209009183,411.31298934210815,-1010.5978416467194
-1156.261369173665,323.7255093915852,-1012.8340139373964
-1202.394733476215,337.66744648163603,-928.2750093799663
-1273.5235319413318,325.5605323920063,-994.8279193396238
-1300.6298670781316,273.50806802341924,-878.6081200418145
-1328.826368026142,280.5665267490451,-990.8466037972635
-1331.5507300342078,248.2642833203021,-1035.2158160489014
-1379.5193481691947,376.63211142583754,-922.3490604614751
-1431.9956116702986,415.212807331376,-1205.0112686406096
-1434.6563505717675,334.81718228128733,-918.7312014799953
-1518.4174396700625,351.8994593288276,-931.50888099811
-1601.202056633113,252.16653870772504,-955.1937279283001
-1622.9130451978567,342.7601511414281,-1000.2549299581376
-1679.1922160862403,314.31223867222974,-922.631647993949
-1723.6700277124635,368.46539857339644,-1014.5146659277578
-1759.6015874547454,367.7562244565571,-870.8163941518538
-1841.3250297700497,299.16812789702766,-836.1825380807397
-1253.206816558789,172.0458842483382,-485.397272954943
-1361.7559596878948,273.91707312142256,-695.6930590270458
-1318.2434245892239,214.12505531862377,-554.4457964831049
-1388.9659018345028,212.36234736189064,-537.4391066556634
-608.3714885208196,16.44271074165644,-55.55395421782025
-1481.6541671663642,999.2401949893033,-1386.7529384842385
-2119.078841206089,751.3122591951826,-1401.1855432533243
-2078.444662569913,782.2983448291545,-1240.08930639331
-2270.148615478256,651.2908215093856,-1267.1110026589065
-2294.0599836844326,469.53031922808185,-995.1276987928655
-2270.9700187215885,652.9260985859443,-1265.448937329723
-2352.7109315403864,772.7535046501442,-1411.0694942130176
-2354.5335627630016,773.0767072618497,-1413.9922739141505
-2148.0652006732093,437.1792619912072,-1114.323635688838
-2325.415307855218,598.5201779381528,-1402.5144838793265
-2184.444328212101,1077.8116624195757,-1455.888143589608
-2535.4700321811,1056.2010796169313,-2050.0584693008063
-2447.352479529554,920.5851737609114,-1563.6676699945524
-2348.6409170168718,-29.51752747209957,-602.5068016741892
-2334.644331985556,-27.798214847545548,-602.5087937581014
1634.6446759610758,57.53478254121682,-1148.27967725785
1625.8178553012303,-91.41515369742531,-1141.6520765924724
1555.877715008709,-71.49903256799954,-1805.6224864260273
1194.6020279883826,-131.98966604554562,-1256.4495255148288
1320.0482874721956,-86.46965261040357,-993.3912671479145
1088.2196479780996,-253.58415800481708,-1288.6677514368423
1094.2490820628766,100.31957743159418,-1115.6824032109566
1084.9071014993963,266.7411837380091,-1146.2801543735993
974.2674284817906,31.609244749465383,-1317.9106964602458
671.6296780499024,-1043.2959750655593,-1090.5384701544813
1266.4737967251888,-287.895358085575,-1382.682364172572
1266.5760499259463,-287.87671361095977,-1382.618768777442
672.5700066181935,9.682554229593634,-1480.6854995716064
714.9614766005656,-4.248333011781405,-1300.0417082060046
714.8483375368057,-4.249006672676522,-1300.1046124057339
-639.7809951827609,165.68370088102017,-1391.3629023758974
-582.8603377663311,21.050797212591192,-1364.9827606556282
-582.9864816052532,21.050525090210392,-1364.9337382801382
-531.8838224559881,630.1867563552128,-1171.6695015714315
-686.8035461104726,297.0013850358242,-1319.7455153859685
-686.9315030866662,296.990627873621,-1319.6911187697888
956.3970805683533,20.855091300329164,-1322.1155921543257
956.5162001505661,20.853560248677894,-1322.0408492757845
124.2252343369237,181.12096413646765,-1778.1425291482542
124.36820278259165,181.1202046599269,-1778.140228299061
-616.9427469517502,-84.54892313047142,-1355.9695729202206
-617.0766678052426,-84.54407739590955,-1355.9250209923161
-417.2403908944916,380.9662795833944,-1485.933585424925
-417.3829428536154,380.9649108807028,-1485.912024487441
-760.3062948584115,384.18666704944184,-1234.4944529903164
-760.4412651339536,384.1727189593858,-1234.4391683462327
-526.4601241150993,109.02931767567871,-1476.0902003174422
-526.6032479362809,109.02995714733535,-1476.0617399432113
-779.195309390392,68.57433176651205,-1291.0958532188142
-779.3284691253988,68.57497804033993,-1291.0421640374934
-841.8374590855583,75.91040706209591,-1339.2736363481454
-841.9704316772265,75.91106247574172,-1339.2194854369268
-550.7954852537924,535.0115880234276,-1293.040631695731
-550.6564012351326,535.0287493306486,-1293.0853619962982
-140.40185542902856,898.5491988975396,-1242.2881800467987
-140.25425176587618,898.5508922848168,-1242.2930201393208
-670.8927640069548,602.1250325407381,-1118.2075403980396
-670.7570093126872,602.1518362519197,-1118.260827477836
-538.8971792512807,-299.8321284536474,-1394.805260944726
-538.750526143441,-299.8432860990257,-1394.8452000815232
-638.560413537795,575.4475198083135,-1199.796786168483
-638.4221036342182,575.4673071517475,-1199.8428134007845
-242.9962427511502,210.73973384553253,-1594.6566031037794
-242.84572283179224,210.73813549406543,-1594.6622622661846
-556.3557572435607,685.4546361809483,-1065.1078869580156
-556.215740098173,685.4742533541211,-1065.1440284282153
-671.580842612889,440.76679641455183,-1248.858041722343
-671.440429970854,440.7795094251516,-1248.903986999351
-531.2213756702159,597.8932396440289,-1264.0591129662018
-531.0774091787816,597.903458528561,-1264.087554102676
-280.2596441467264,989.0914193372848,-1208.2549096690611
-523.6044001365857,-405.35686972182754,-1374.5815610181012
-523.4552973003293,-405.36833581986906,-1374.6041000887897
-1066.6186114815425,311.8259980847659,-1293.360526589361
-1066.7569271601478,311.8212680995928,-1293.3106390254743
-1015.2104032226224,299.8703090942532,-1247.0850931557463
-1015.3468385581683,299.86540470683485,-1247.0387886967205
-1032.6322479129226,362.6867084554026,-1191.0255507083648
-1032.7703117189874,362.6798024017452,-1190.9769678704104
-1095.0124871957307,324.0167142656104,-1294.9759722828271
-1095.1463223604371,324.0126775761769,-1294.9310722317246
-1119.3368233760261,280.7224459363243,-1197.0698312810557
-1119.4704288222179,280.7180522874056,-1197.0190757122439
-1126.4293305631304,285.84491301786613,-1198.393613697464
-1126.5617030979308,285.8408940783969,-1198.344567587336
-1118.5153138316798,341.1285828500979,-1298.4399471948566
-1118.6484794840921,341.12678388133645,-1298.3985174884706
-1195.320046063981,364.66723696648864,-1350.2042288527823
-1195.453123850179,364.6653270293619,-1350.1625227045188
-1031.3316935985674,876.4347018239649,-1873.115739066344
-1031.4712907623257,876.4411407150816,-1873.1061781888804
-1293.7937860191241,289.9694254910912,-1185.9859661834078
-1293.919508387646,289.9663941102878,-1185.9343402939644
-1298.047279010812,296.69550911563044,-1188.697441350439
-1298.1713127502203,296.6928638009058,-1188.6478946330078
-1301.457009969426,303.5935077715456,-1191.5038964517898
-1301.579836786363,303.5917798206229,-1191.4560277431106
-1392.3740152253267,303.0451605746541,-1410.4878739044734
-1392.49649450453,303.0464199646761,-1410.4477723209554
-1028.704035304337,477.66796279033645,-1201.6321669771846
-1116.7503912840025,280.5055248057098,-1196.6895013750313
-1538.0706170250598,279.51799575643025,-1096.7681849843816
-1538.1804728997463,279.51449167146046,-1096.7142956016153
-1108.3429896962284,267.48519659922937,-1354.1998766135066
-1279.1757387774683,330.7371546685706,-1131.906191105622
-1590.4127616700855,313.23453829851513,-986.7859501631768
-1590.5161784606282,313.22736779172425,-986.7314743621926
-1292.2679209044131,265.314650473418,-1345.6626345857478
-1298.2684426631215,343.59812737010697,-1293.262774273727
-1433.2117894301105,244.7095593927447,-1057.8725192097156
-1383.2335402638507,375.6448213230005,-1174.3518562608635
-1457.3854433109645,345.4905407230754,-1112.0481858109279
-1535.4515924457753,270.12345813493715,-1091.4912337033231
-1468.4660800129702,308.7319008033821,-1169.9783628508221
-1539.0332666094198,283.87462412568135,-1099.1907325123639
-1528.9123833621463,337.2397299017515,-1053.984598168871
-1590.9298801206066,310.1434228221323,-985.5821555785844
-1697.7648156321372,325.0750461329488,-1000.5549980201058
-1713.7786939604068,287.4974788028395,-1052.9731157937156
-1876.0532921057147,402.3088385765849,-1119.245932307818
-1775.6538066263033,268.2646403804518,-972.6418875269408
-1645.863605055099,243.62801002187047,-697.9447628987102
-1954.7890032706307,249.33896599298214,-700.089362581525
-2007.5856635690648,312.10938594382895,-709.6858970267319
-2102.9928976882093,232.12701686542462,-640.2295835707598
-2024.6427846215456,179.25230960480178,-758.5179687771658
-2374.6342308610992,2109.010162658687,-2792.369584450626
